# .PCD v0.7 - Point Cloud Data file format
VERSION 0.7
FIELDS x y z intensity
SIZE 4 4 4 4
TYPE F F F F
COUNT 1 1 1 1
WIDTH 874
HEIGHT 1
VIEWPOINT 0 0 0 1 0 0 0
POINTS 874
DATA ascii
-4.9696407 0.67662567 0.19472066 0.73364651
-4.9637871 1.3553485 0.1937868 0.73010248
-4.9620829 1.7300854 0.19277638 0.7285049
-4.9675159 1.9959298 0.19168621 0.72741479
13.426656 2.0374227 0.096403517 0.82395762
-4.9705887 2.5110302 0.18918338 0.72678077
12.731247 2.9859991 0.23313409 0.71432257
4.2808571 3.2226055 0.19714874 0.70204997
18.460354 3.6935546 0.14429545 0.71786952
18.458641 3.9672737 0.10831752 0.70824921
20.252449 7.4967241 0.18524313 0.77269518
20.718582 7.5009537 0.19707465 0.77341199
-5.005887 -7.596252 0.40000001 0.80000001
-4.7026134 -7.5919762 0.40000001 0.80000001
-4.3058 -7.5919762 0.40000001 0.80000001
-3.901052 -7.5919762 0.40000001 0.80000001
-3.5511615 -7.5200338 0.47817931 0.78589773
-3.2344127 -7.5136242 0.45393232 0.785151
-2.4840286 -7.5242367 0.57182586 0.87575758
-2.2391176 -7.5160389 0.55393589 0.86528367
8.2159796 -7.5094514 0.3938483 0.73427373
11.571519 -7.7880158 0.40000001 0.80000001
11.7208 -7.7733493 0.40000001 0.80000001
12.213465 -7.5018053 0.3958534 0.7929675
15.636408 -7.5686226 0.40000001 0.80000001
-5.0116458 -7.3955832 0.40000001 0.80000001
-3.0715206 -7.493752 0.58593154 0.85288787
-2.7276449 -7.4985456 0.37959909 0.74718833
-2.3212948 -7.4972153 0.36471337 0.71210277
-1.9268414 -7.4493089 0.37041825 0.72870564
-1.5043942 -7.4986391 0.40000001 0.80000001
-1.1061363 -7.4986396 0.40000001 0.80000001
-0.70615202 -7.4986396 0.40000001 0.80000001
-0.30918422 -7.4986396 0.40000001 0.80000001
-0.023292601 -7.4986525 0.40000001 0.80000001
0.17363688 -7.4986868 0.40000001 0.80000001
0.39871225 -7.4987612 0.40000001 0.80000001
0.69566458 -7.4990292 0.40000001 0.80000001
1.0906383 -7.4990296 0.40000001 0.80000001
1.4960358 -7.4990301 0.40000004 0.79999995
1.7899512 -7.4990301 0.40000004 0.79999995
2.0978928 -7.4990301 0.40000004 0.79999995
2.4898186 -7.4990301 0.40000004 0.79999995
2.79776 -7.4990301 0.40000004 0.79999995
3.0917044 -7.4990301 0.40000004 0.79999995
3.4845431 -7.4990301 0.40000004 0.79999995
3.8851788 -7.4990296 0.40000004 0.80000001
4.2863259 -7.4990301 0.40000004 0.79999995
4.6874733 -7.4990301 0.40000004 0.79999995
5.0886202 -7.4990296 0.40000004 0.79999995
5.4897671 -7.4990296 0.40000004 0.79999995
5.790627 -7.4990292 0.40000004 0.79999995
6.0914869 -7.4990292 0.40000004 0.80000001
6.6968756 -7.4603143 0.4304136 0.78111577
7.0394959 -7.4470148 0.47593611 0.76009315
7.39572 -7.4990292 0.40000004 0.79999995
7.755085 -7.4370089 0.46647859 0.77974367
8.4655151 -7.4973502 0.39812312 0.7530871
8.8158913 -7.4990458 0.40006188 0.79995745
9.2038279 -7.4990444 0.40006605 0.79996145
9.6664429 -7.4990473 0.40008703 0.79995561
10.169815 -7.4990301 0.40000015 0.79999995
10.416727 -7.4990506 0.40014613 0.79990691
10.665012 -7.499052 0.40014493 0.79990411
10.995794 -7.4990301 0.40000015 0.79999995
12.568232 -7.4990292 0.40010732 0.79991633
13.064594 -7.499023 0.40009496 0.79999506
13.312977 -7.4990311 0.40017867 0.79997516
13.561246 -7.4990225 0.40018839 0.79998797
14.041689 -7.4985008 0.37649581 0.7658031
14.358322 -7.4994731 0.39298272 0.78897548
14.617269 -7.4976296 0.36974135 0.76041913
14.985654 -7.4975185 0.36902854 0.75803667
15.216388 -7.4963984 0.39175627 0.78589088
15.464363 -7.4990311 0.40014791 0.79996431
15.636602 -7.4885769 0.40000004 0.79999995
16.043627 -7.4990296 0.40000001 0.80000001
16.374657 -7.4990597 0.40007567 0.79995298
16.788202 -7.4990301 0.40000015 0.79999995
17.03661 -7.4990296 0.40000001 0.80000001
17.367605 -7.4990296 0.40000001 0.80000001
17.781265 -7.4990296 0.40000001 0.80000001
18.029594 -7.4990296 0.40000001 0.80000001
18.360588 -7.4990296 0.40000001 0.80000001
18.898376 -7.4990206 0.40008354 0.7999531
19.353596 -7.4990096 0.40012351 0.79993773
19.849983 -7.4990292 0.4000001 0.79999995
20.190338 -7.3623095 0.40000001 0.80000001
20.677471 -7.4990296 0.40000001 0.80000001
21.132669 -7.4990296 0.40000001 0.80000001
21.670456 -7.4990296 0.40000001 0.80000001
22.040268 -7.4990296 0.40000001 0.80000001
22.653271 -7.4990296 0.40000001 0.80000001
22.985544 -7.4703813 0.40000001 0.80000001
-5.0116458 -7.0958986 0.40000001 0.80000001
-4.0117831 -6.9363132 0.46764359 0.71563888
-3.7518258 -7.068356 0.51273215 0.75401473
-1.8590949 -7.0537224 0.45219484 0.73158884
7.6738057 -7.1212597 0.44920135 0.71654558
15.637314 -7.1976919 0.40000001 0.80000001
20.182901 -6.9796829 0.40000001 0.80000001
23.029053 -7.0922151 0.40000001 0.80000001
-5.0116463 -6.7962151 0.40000004 0.79999995
-4.7447119 -6.742156 0.55258882 0.70580298
-4.3904123 -6.7967691 0.56844115 0.72683001
-1.8624738 -6.7566781 0.39303929 0.73651731
7.6660051 -6.840415 0.45201704 0.71408808
15.638056 -6.8946929 0.40000001 0.80000001
20.182901 -6.615129 0.40000001 0.80000001
23.029053 -6.7887087 0.40000001 0.80000001
-5.0116463 -6.496531 0.40000004 0.79999995
-1.8591334 -6.3642359 0.34113511 0.71114421
1.2244763 -6.399416 0.40000001 0.80000001
1.6334281 -6.399416 0.40000001 0.80000001
2.0042644 -6.399416 0.40000001 0.80000001
2.3892965 -6.3855467 0.48528868 0.75489789
2.6641045 -6.3792496 0.59483767 0.72799945
2.8819666 -6.3936915 0.43828154 0.78317773
3.2883782 -6.3720598 0.55980337 0.71699625
3.387383 -6.399416 0.40000001 0.80000001
3.6885295 -6.3888702 0.46676636 0.78812826
3.9662797 -6.3877363 0.4655053 0.78657126
4.2468729 -6.3068743 0.47139639 0.79236662
4.6301856 -6.399416 0.40000001 0.80000001
5.0110445 -6.399416 0.40000001 0.80000001
5.2515774 -6.399416 0.40000001 0.80000001
5.5121746 -6.399416 0.40000001 0.80000001
5.752717 -6.399416 0.40000001 0.80000001
6.1357193 -6.399416 0.40000001 0.80000001
6.7298551 -6.4038582 0.41716152 0.73069227
7.081605 -6.3948808 0.45836186 0.79861355
7.3127842 -6.3915887 0.44615185 0.7513566
7.584837 -6.5352836 0.41701698 0.74640173
7.9856672 -6.3705807 0.33345214 0.74949741
8.3632298 -6.4031796 0.40000001 0.80000001
8.5187683 -6.4316015 0.40000001 0.80000001
11.268663 -6.3371782 0.40000001 0.80000001
11.498526 -6.4274168 0.40000001 0.80000001
15.638796 -6.5916939 0.40000001 0.80000001
23.029053 -6.4971094 0.40000001 0.80000001
-5.0116463 -6.0969524 0.40000004 0.79999995
-1.8643992 -6.1295853 0.43780702 0.73863637
4.2866917 -6.005722 0.40000004 0.79999995
11.099185 -6.0000844 0.40000001 0.80000001
11.284971 -6.2447681 0.40000001 0.80000001
11.583954 -6.2873631 0.40000001 0.80000001
15.57024 -6.288846 0.44684416 0.73453212
15.774121 -6.0108786 0.44309601 0.72391182
20.182901 -6.1091757 0.40000001 0.80000001
23.029053 -6.0924349 0.40000001 0.80000001
-4.9628744 -5.8477316 0.48074758 0.76252753
-4.5758085 -5.8592014 0.48838988 0.78049189
-4.0777955 -5.7807655 0.46126178 0.80435652
-1.8629346 -5.7895703 0.41097641 0.76144373
-0.30224189 -5.7108569 0.59283876 0.74516445
-0.21797764 -5.8893433 0.40000001 0.80000001
4.2866917 -5.7658596 0.39999998 0.79999995
11.298828 -5.7074304 0.40000001 0.80000001
11.507618 -5.984642 0.40000004 0.79999995
11.882299 -5.923007 0.40000001 0.80000001
15.998825 -5.8228683 0.58553827 0.76988488
20.182901 -5.7340646 0.40000001 0.80000001
23.029053 -5.7889309 0.40000001 0.80000001
-5.0116458 -5.5974789 0.40000001 0.80000001
-3.728893 -5.606195 0.47002155 0.83485281
-0.2177484 -5.5078573 0.49586207 0.7659862
4.2866917 -5.5139108 0.40000004 0.79999995
11.387096 -5.5780401 0.40000001 0.80000001
11.506872 -5.402462 0.40000001 0.80000001
11.71084 -5.6900349 0.40000004 0.79999995
12.074272 -5.5806007 0.40000001 0.80000001
16.016592 -5.6193185 0.4498246 0.77591836
20.182901 -5.4942937 0.40000001 0.80000001
23.029051 -5.4979396 0.40000001 0.80000001
-5.0116458 -5.2977948 0.40000001 0.80000001
-4.0728517 -5.1395702 0.49450728 0.74114436
-3.8180952 -5.1775341 0.44016874 0.74178672
-1.8546078 -5.3778553 0.42561942 0.7991091
-0.21570359 -5.2336907 0.4946996 0.75771469
4.2866917 -5.2619624 0.40000001 0.80000001
6.0225787 -5.1480556 0.55911773 0.7344628
11.688137 -5.1367474 0.40000001 0.80000001
11.710896 -5.1039562 0.40000001 0.80000001
12.236351 -5.1529818 0.40000004 0.79999995
16.33329 -5.2285357 0.4892388 0.75881088
20.182901 -5.2384181 0.40000001 0.80000001
-5.0116458 -4.8982162 0.40000001 0.80000001
-3.9941883 -4.8143902 0.38329619 0.73518038
-1.8544364 -4.9367776 0.44003427 0.75113904
-0.21505031 -4.9461117 0.4878819 0.76060623
3.6654365 -4.8053627 0.54044962 0.72706896
4.1753941 -4.8098345 0.56775337 0.79421687
4.2866917 -5.010005 0.40000001 0.80000001
6.040164 -4.9365058 0.4115532 0.73030186
6.367167 -5.0714483 0.41444337 0.74872005
10.169199 -4.8140965 0.40000001 0.80000001
11.905041 -4.8187933 0.40000001 0.80000001
12.103935 -5.016367 0.40000004 0.79999995
12.445524 -4.8272915 0.40000001 0.80000001
16.379135 -5.0460024 0.36946887 0.73416662
20.182901 -4.9992919 0.40000001 0.80000001
23.01141 -4.9734421 0.48196149 0.75293338
-0.21797764 -4.7736125 0.40000001 0.80000001
1.2458113 -4.7443304 0.40000001 0.80000001
1.6399301 -4.7443304 0.40000001 0.80000001
2.0259123 -4.7443304 0.40000001 0.80000001
2.3915544 -4.7443304 0.40000001 0.80000001
2.764616 -4.7443304 0.40000001 0.80000001
3.004631 -4.7443304 0.40000001 0.80000001
3.3929615 -4.759171 0.4824062 0.76111686
3.7616892 -4.7443304 0.40000001 0.80000001
3.9755976 -4.7770023 0.40022027 0.76244783
4.2720242 -4.7489858 0.40000001 0.80000001
6.2181811 -4.796217 0.55384725 0.7308206
9.9017181 -4.6925364 0.40000004 0.79999995
10.41617 -4.5056062 0.40000001 0.80000001
11.983587 -4.7036533 0.40000001 0.80000001
12.114498 -4.5117531 0.40000001 0.80000001
12.389431 -4.667881 0.41533226 0.73672807
12.616863 -4.535862 0.40000001 0.80000001
16.646938 -4.7104282 0.46851918 0.76257133
20.182899 -4.6166892 0.40000001 0.80000001
23.006067 -4.5090175 0.51979262 0.71079654
-5.0116458 -4.4986372 0.40000001 0.80000001
-3.9872656 -4.3452559 0.38987923 0.74928403
-1.7538179 -4.412497 0.45449364 0.78145379
-0.21797764 -4.3532648 0.40000004 0.79999995
3.1540732 -4.3474026 0.48648092 0.73050708
10.191873 -4.4231253 0.56216002 0.74036598
10.491917 -4.4109921 0.40000001 0.80000001
10.65856 -4.2028403 0.40000001 0.80000001
12.297787 -4.2430744 0.40000001 0.80000001
12.324224 -4.2048769 0.40004534 0.79994738
12.923989 -4.4100046 0.40000001 0.80000001
16.906469 -4.4040823 0.4697578 0.73618877
20.38546 -4.3324537 0.40000001 0.80000001
20.764015 -4.3324575 0.39999998 0.79999995
21.13965 -4.3324661 0.39999998 0.79999995
21.500681 -4.332469 0.39999998 0.79999995
21.675625 -4.2414441 0.40000001 0.80000001
-5.0116458 -4.0868454 0.40000001 0.80000001
-1.7625157 -3.9817696 0.43099967 0.79200423
-0.21797764 -3.9329262 0.40000001 0.80000001
3.031177 -4.0232062 0.36115244 0.73009145
10.386607 -4.087389 0.51515889 0.73200011
10.794903 -4.0325341 0.40000001 0.80000001
10.900949 -3.900074 0.40000001 0.80000001
12.50723 -3.9360523 0.40000001 0.80000001
12.790684 -4.0545797 0.44886625 0.76928806
13.103975 -4.1482558 0.40000001 0.80000001
16.997269 -4.1979752 0.38349801 0.71656811
20.37921 -3.9167833 0.40000001 0.80000001
21.675625 -3.9816914 0.40000004 0.79999995
23.021111 -4.102541 0.4272584 0.71739167
-5.0024209 -3.8334746 0.40000001 0.80000001
-3.991643 -3.7511649 0.38211602 0.73228323
-1.8028877 -3.6048541 0.43482399 0.79547322
-0.21797764 -3.6526976 0.40000001 0.80000001
2.7517681 -3.6405165 0.34605253 0.7185846
10.620629 -3.7894735 0.54761815 0.73778498
11.097891 -3.6540766 0.40000001 0.80000001
11.128197 -3.6162214 0.40000001 0.80000001
12.585776 -3.8209124 0.40000001 0.80000001
12.716687 -3.6290121 0.40000001 0.80000001
12.974251 -3.8374491 0.45313364 0.73788655
13.345993 -3.8686171 0.40000004 0.79999995
13.503971 -3.7436328 0.40000001 0.80000001
17.130798 -3.8369231 0.40000001 0.80000001
20.356056 -3.6560736 0.40000001 0.80000001
21.675625 -3.7419009 0.40000001 0.80000001
22.999878 -3.6619742 0.46040294 0.73402208
-4.9508209 -3.4546037 0.42410272 0.78073764
-4.5047989 -3.3841913 0.43861878 0.74382496
-4.272707 -3.384366 0.56610942 0.75712943
-4.0238352 -3.3989515 0.44800538 0.7491557
-0.21797764 -3.3724685 0.40000001 0.80000001
10.807871 -3.5582426 0.5514642 0.73689103
11.370579 -3.3134646 0.40000001 0.80000001
12.899962 -3.360352 0.40000001 0.80000001
12.92617 -3.3219345 0.40000001 0.80000001
13.399369 -3.5492632 0.40000001 0.80000001
13.54722 -3.345036 0.40000004 0.79999995
17.355309 -3.5943813 0.38219476 0.72336709
17.580566 -3.402076 0.49414113 0.73915648
20.326029 -3.3180194 0.40000001 0.80000001
21.675625 -3.3622479 0.40000001 0.80000001
23.002563 -3.3660913 0.54141647 0.74877769
-0.21797764 -3.0922399 0.40000001 0.80000001
1.211424 -3.0079837 0.48952901 0.78677195
2.4796519 -3.2046015 0.46450216 0.78199291
10.986412 -3.2123463 0.52395827 0.7269792
11.385742 -3.2945232 0.40000001 0.80000001
11.599333 -3.0277295 0.40000001 0.80000001
13.135602 -3.0149322 0.40000001 0.80000001
13.808715 -3.1382082 0.41668531 0.74536419
17.836695 -3.0611405 0.43995962 0.7457335
20.303936 -3.0692711 0.40000001 0.80000001
23.01086 -3.1381912 0.4633716 0.73766887
-4.9905863 -2.8540039 0.40769339 0.76324856
-0.21797764 -2.9360533 0.40000004 0.79999995
0.083929554 -2.991986 0.42257613 0.73876977
0.33414313 -2.9731655 0.43169993 0.74845964
0.61574876 -2.9617488 0.43924969 0.76123452
1.0031236 -2.9926038 0.43337405 0.76279473
1.4798576 -2.9763842 0.43697149 0.73475194
1.7701228 -2.9681478 0.45296431 0.74835348
2.2646074 -2.9877827 0.40896505 0.75351918
5.104702 -2.9622226 0.40000004 0.80000007
5.4007578 -2.78777 0.40000001 0.80000001
11.173403 -2.9636564 0.54301971 0.74897289
13.187966 -2.9381719 0.40000001 0.80000001
13.345072 -2.7078731 0.40000001 0.80000001
13.985686 -2.7185028 0.42021671 0.77198917
21.675625 -2.9826043 0.40000001 0.80000001
22.934662 -2.8114426 0.53413397 0.78457916
4.8846836 -2.6214828 0.39999998 0.79999995
5.1020098 -2.4132485 0.40000001 0.80000001
6.8486567 -2.4069972 0.40000001 0.80000001
6.9009075 -2.475821 0.40000001 0.80000001
11.399117 -2.6748037 0.52198219 0.75321513
11.744505 -2.6718984 0.40000001 0.80000001
13.47597 -2.5159917 0.40000001 0.80000001
13.554517 -2.4008517 0.40000001 0.80000001
21.721775 -2.6727161 0.40000004 0.79999995
22.010662 -2.6056693 0.40000001 0.80000001
22.361965 -2.6062374 0.43123543 0.78958857
22.757975 -2.605669 0.40000004 0.79999995
23.025326 -2.5264452 0.39776075 0.731821
-4.9908504 -2.328599 0.4718225 0.76126957
4.6439276 -2.2980485 0.39999998 0.79999995
4.8688641 -2.1209669 0.40000001 0.80000001
6.6192265 -2.1047964 0.40000001 0.80000001
7.0948296 -2.3524787 0.41865277 0.77014178
11.659359 -2.3180542 0.52870882 0.74444497
11.992252 -2.3300855 0.40000001 0.80000001
12.152945 -2.1068177 0.40000001 0.80000001
13.737791 -2.1321912 0.40000001 0.80000001
14.034058 -2.3209271 0.43210554 0.76999509
23.00798 -2.133924 0.38278985 0.73627985
-4.988246 -1.8561368 0.40820333 0.7702111
4.4383078 -1.9561801 0.40000004 0.79999995
4.6194544 -1.808298 0.40000001 0.80000001
4.8008442 -2.0356946 0.40000001 0.80000001
6.3913536 -1.8046464 0.40000001 0.80000001
6.6032658 -2.0832505 0.40011948 0.79999876
7.0028191 -2.0316155 0.44629735 0.74701798
11.828537 -2.0860689 0.54979146 0.75431514
12.288839 -1.9180064 0.40000001 0.80000001
12.367397 -1.8088557 0.40000001 0.80000001
13.779034 -2.071734 0.40000001 0.80000001
13.858347 -1.9326453 0.40000001 0.80000001
14.198374 -2.0325212 0.43660158 0.77046019
-4.9927397 -1.5230601 0.44131625 0.76567268
4.1576252 -1.6891662 0.40000001 0.80000001
4.3927183 -1.5240524 0.40000004 0.79999995
4.5060863 -1.6661752 0.40000001 0.80000001
6.1761036 -1.5211236 0.40000001 0.80000001
6.3005323 -1.6850181 0.40000001 0.80000001
6.805542 -1.5953624 0.41014159 0.70596397
12.17464 -1.535249 0.55332696 0.75116611
12.567074 -1.5314256 0.40000001 0.80000001
13.964636 -1.7950041 0.40000001 0.80000001
14.385515 -1.7651391 0.45686877 0.74609917
23.007881 -1.7905321 0.41585463 0.75136638
-4.9874063 -1.2076552 0.44350308 0.81684768
3.871846 -1.2870555 0.40000001 0.80000001
4.0179634 -1.4839418 0.40000004 0.80000007
4.2113295 -1.2966558 0.40000001 0.80000001
5.9452496 -1.2170472 0.40000001 0.80000001
6.0222015 -1.3184061 0.40000001 0.80000001
6.6365709 -1.4204336 0.44471371 0.72925425
12.352535 -1.3087578 0.40000001 0.80000001
12.68681 -1.22252 0.40000001 0.80000001
13.966431 -1.4677426 0.40000001 0.80000001
14.356496 -1.4383816 0.44899842 0.7519207
23.010254 -1.4265747 0.41445097 0.73376018
3.9904079 -1.0196996 0.40000001 0.80000001
5.7143831 -0.91295439 0.40000001 0.80000001
6.1565127 -0.95414859 0.56311864 0.7290861
6.3246241 -1.1404996 0.5123353 0.74580586
9.5794077 -0.98728967 0.51388592 0.7625773
9.776432 -1.1606903 0.45513904 0.72444367
10.054252 -0.94117105 0.5777775 0.74033225
12.402403 -0.91970915 0.40000001 0.80000001
13.967928 -1.1950479 0.40000001 0.80000001
14.196796 -1.0521749 0.58321041 0.92759383
23.006866 -1.0026488 0.40643424 0.75065303
-4.9910769 -0.81342709 0.44815344 0.7983709
3.7863178 -0.87950873 0.45644131 0.77093804
4.0076246 -0.60485971 0.40000001 0.80000001
5.4835424 -0.60889459 0.40000001 0.80000001
6.085535 -0.69796228 0.46296042 0.72966707
9.0680647 -0.62777865 0.48596579 0.74776375
9.3437948 -0.85035044 0.52078325 0.76355064
10.087259 -0.64062107 0.4959327 0.75309944
12.368078 -0.62991637 0.40000001 0.80000001
12.684217 -0.86877644 0.40000001 0.80000001
13.969614 -0.88757718 0.40000001 0.80000001
14.221251 -0.77694708 0.5100469 0.89536476
23.000706 -0.62618256 0.44959003 0.75023425
-4.989706 -0.46436289 0.46481001 0.76139426
-3.2220621 -0.38291672 0.46968454 0.76564479
3.7106462 -0.46749467 0.48199022 0.78536057
4.0051937 -0.30505949 0.40000001 0.80000001
5.4050426 -0.50549567 0.40000001 0.80000001
5.8762116 -0.41854501 0.51510996 0.73818427
8.7959814 -0.35001034 0.47981533 0.75551426
9.8705645 -0.39224806 0.5232926 0.70544404
12.351238 -0.38137203 0.40000001 0.80000001
12.651185 -0.58506894 0.40000001 0.80000001
13.971373 -0.56710792 0.40000001 0.80000001
14.237299 -0.45415598 0.43978655 0.84257865
21.033884 -0.38504472 0.57153136 0.75440937
21.322159 -0.35138696 0.57571161 0.71674895
23.004978 -0.32385314 0.45504016 0.72161984
-4.9892058 -0.13935348 0.45658714 0.7561056
-3.5812819 -0.22177507 0.56256199 0.72476912
-3.0091958 -0.1821734 0.59131348 0.75632477
3.782939 -0.23143877 0.50868988 0.80591762
4.0028353 -0.014189003 0.40000001 0.80000001
5.3611097 -0.29683018 0.40000001 0.80000001
5.6337872 -0.077508241 0.48724759 0.72273254
8.5656433 -0.12693134 0.47015578 0.75246125
9.6403294 -0.098840594 0.53255689 0.83038473
12.314323 -0.061300695 0.40000001 0.80000001
12.623334 -0.22752002 0.40000001 0.80000001
13.97291 -0.28703809 0.40000001 0.80000001
14.294377 -0.18232957 0.4283604 0.81529886
20.982361 -0.12347358 0.59499109 0.77453053
21.523808 -0.25852489 0.55396569 0.71247423
21.692268 -0.20278484 0.55865741 0.75198162
23.010826 -0.14363641 0.45848671 0.71983314
-4.9905863 0.090559185 0.42222482 0.75255644
-3.5817027 0.10973697 0.4853459 0.76928461
-3.0088658 0.19588447 0.56704766 0.719486
3.7037146 0.13458359 0.55880183 0.91928291
4.0003462 0.2928409 0.40000001 0.80000001
5.3626614 0.0055796262 0.40000001 0.80000001
5.620945 0.018355479 0.51381683 0.75246239
8.3097372 0.17743254 0.58768433 0.79963779
8.5396748 0.065196693 0.59227765 0.76781988
9.449729 0.082046241 0.56371272 0.8660624
12.257974 0.15307868 0.40000001 0.80000001
12.59807 0.050722301 0.40000001 0.80000001
12.647301 0.031047404 0.40000001 0.80000001
13.974566 0.014796635 0.40000001 0.80000001
14.304745 0.17992347 0.46030158 0.74549401
20.992329 0.073981643 0.5901944 0.7629956
21.611469 0.1916495 0.54503644 0.71855068
23.013023 0.053239942 0.45406842 0.71564013
-4.9921446 0.31046844 0.41734532 0.73814422
-3.3065705 0.36500216 0.53359097 0.71724194
-3.057929 0.39968905 0.50153381 0.71151662
3.6985986 0.33865097 0.57446069 0.93394828
3.9978571 0.5998708 0.40000001 0.80000001
5.3641844 0.30251569 0.40000001 0.80000001
5.5611467 0.36829007 0.59380746 0.8423
8.236557 0.35915768 0.57570887 0.77544451
9.1179962 0.45539039 0.47565085 0.76585579
11.955513 0.58372629 0.41495323 0.70958209
12.213285 0.36855114 0.40000004 0.79999995
12.564972 0.31502926 0.40000001 0.80000001
13.976137 0.30129924 0.40000001 0.80000001
14.363437 0.40797862 0.4636271 0.76385611
21.159115 0.3909663 0.58132678 0.75088596
23.010872 0.46558759 0.42248607 0.73991168
-4.9944973 0.69042534 0.45211607 0.76503927
3.6899295 0.75484896 0.58329707 0.9465614
3.9954991 0.89074129 0.40000001 0.80000001
5.3657799 0.61359155 0.40000001 0.80000001
5.4837389 0.82964182 0.59202957 0.75609803
7.9225502 0.73023778 0.46663949 0.72793984
8.7559481 0.80102032 0.47071576 0.77601796
11.863308 0.87479019 0.40000001 0.80000001
12.024866 0.67694032 0.40000001 0.80000001
12.359936 0.62504029 0.40000001 0.80000001
13.977779 0.60069495 0.40000001 0.80000001
14.282131 0.85047454 0.41942424 0.74506098
-4.9849367 0.96504164 0.54460829 0.7285018
3.7032449 1.1876879 0.59995353 0.84485781
3.9930096 1.1977713 0.40000001 0.80000001
5.3673019 0.91052079 0.40000001 0.80000001
5.6042824 1.1747921 0.57425493 0.73302698
8.0765858 0.99693573 0.51203352 0.81400037
8.2051716 1.1187317 0.42779005 0.73011833
8.424345 0.98489887 0.51467723 0.79249561
11.668773 1.1405724 0.40000001 0.80000001
11.980137 1.1988126 0.40013885 0.79992557
12.154902 0.93505132 0.40000001 0.80000001
13.836098 1.0094104 0.40000001 0.80000001
23.008488 0.91750002 0.42181882 0.76558614
-4.9824324 1.2817535 0.43535754 0.72137916
3.7630558 1.39274 0.40412849 0.70868212
3.9906516 1.4886496 0.40000001 0.80000001
5.368825 1.2074637 0.40000001 0.80000001
5.772234 1.4151428 0.54634142 0.74908066
11.520697 1.3275819 0.54057568 0.73833215
11.955738 1.236186 0.40000001 0.80000001
13.762329 1.2483327 0.40000001 0.80000001
14.07177 1.2223978 0.39999998 0.79999995
23.00285 1.2314696 0.46032903 0.77406776
-4.9878001 1.6668196 0.41270921 0.72396308
3.6890976 1.7486371 0.40326259 0.71265554
4.0031099 1.7949958 0.40000001 0.80000001
5.4087563 1.5026629 0.40000001 0.80000001
6.1340895 1.7795417 0.459481 0.72739768
11.388101 1.621326 0.40000001 0.80000001
11.692639 1.6339889 0.40000001 0.80000001
11.760866 1.5308316 0.40000001 0.80000001
13.496269 1.6371907 0.40000001 0.80000001
13.600304 1.5109043 0.40000001 0.80000001
13.825926 1.5242851 0.4397912 0.74474847
23.004496 1.5681195 0.42216629 0.77211022
-4.973083 2.09462 0.43492305 0.7256071
3.8188591 2.0409224 0.44475761 0.77578223
4.0277843 2.0164413 0.40000001 0.80000001
5.6232195 1.8016913 0.40000001 0.80000001
11.072314 2.0920296 0.40000001 0.80000001
11.224443 1.8427706 0.40000004 0.79999995
11.568632 1.8214881 0.40000001 0.80000001
13.195723 2.002018 0.40000001 0.80000001
13.357555 1.8055725 0.40000004 0.79999995
13.579159 1.8281318 0.44397831 0.76802868
23.003101 1.8998299 0.41210747 0.77559102
3.8756037 2.3191729 0.40000001 0.80000001
4.0948219 2.1095459 0.40000004 0.79999995
4.2081375 2.266923 0.40000001 0.80000001
5.8784513 2.1262622 0.40000001 0.80000001
6.2958946 2.1078267 0.48193932 0.71656162
10.965945 2.3052599 0.50253749 0.74914551
11.372288 2.1183598 0.40000001 0.80000001
12.895178 2.3668456 0.40000001 0.80000001
13.114807 2.1002407 0.40000004 0.79999995
13.230286 2.3339043 0.40964162 0.78979361
23.001453 2.1805792 0.40852261 0.77270496
4.0600762 2.5170221 0.40000001 0.80000001
4.312006 2.4111795 0.40000004 0.80000007
4.5008583 2.6734638 0.40000001 0.80000001
6.1654701 2.5151849 0.40000001 0.80000001
6.3902903 2.4115634 0.59357303 0.76537472
6.6251478 2.5761404 0.47123349 0.71814311
11.185678 2.4005094 0.40000001 0.80000001
12.8605 2.4089408 0.40000001 0.80000001
13.009348 2.6000493 0.36557257 0.741669
23.002247 2.4643061 0.41965914 0.76288283
-4.9360909 2.8332779 0.44200993 0.74839038
-4.6193256 2.7077661 0.56388223 0.75122476
-4.3730116 2.7172904 0.40000001 0.79999995
-3.9953752 2.7172685 0.40000001 0.80000001
-3.6990552 2.7391047 0.39999998 0.79999995
-2.1921401 2.8573642 0.40000001 0.80000001
0.17129779 2.97472 0.4268955 0.74782991
4.072855 2.7741659 0.40000001 0.80000001
4.5291862 2.7128067 0.40000001 0.80000001
6.1567879 2.7156878 0.40000001 0.80000001
6.3026104 2.9016778 0.40000001 0.80000001
6.858232 2.8647697 0.45182747 0.71778619
12.598303 2.7272179 0.40000001 0.80000001
12.619221 2.7018266 0.39999998 0.79999995
16.019093 2.9843202 0.40000004 0.79999995
16.323526 2.9863682 0.47985947 0.79248357
16.544701 2.9977028 0.39380535 0.75031972
16.80204 2.9962139 0.41974682 0.78776443
17.133461 2.9843125 0.40000004 0.79999995
17.519625 2.9842997 0.40000001 0.80000001
17.739334 2.9953654 0.4224799 0.77689791
18.005081 2.9842415 0.40000001 0.80000001
18.341299 2.9927831 0.40000004 0.79999995
19.895744 2.9983683 0.40000001 0.80000001
23.007095 2.8489399 0.39384913 0.73792231
-4.9773316 3.2076747 0.4430759 0.72594392
-3.6518559 3.1358879 0.39999998 0.79999995
-2.1910696 3.0076082 0.40000001 0.80000001
0.38894856 3.2038918 0.36671802 0.72146523
4.2205696 3.0606437 0.46058547 0.75325048
4.7369232 3.0013199 0.40000001 0.80000001
4.8030214 3.0931191 0.40000001 0.80000001
6.3836231 3.0050058 0.40000001 0.80000001
6.6104422 3.2943039 0.40000001 0.80000001
7.0234308 3.1312571 0.52013451 0.72934657
15.596383 3.2956865 0.40000001 0.80000001
15.812691 3.0133586 0.40616128 0.75592518
18.421364 3.2572446 0.40000001 0.80000001
22.998877 3.2488947 0.43132067 0.74924749
-4.9857101 3.4619884 0.52123165 0.73812032
-2.1887994 3.3262439 0.40000001 0.80000001
0.35773891 3.3769903 0.59526718 0.84753817
4.442872 3.3730617 0.45773441 0.83159536
4.6221514 3.5779665 0.40000001 0.80000001
4.9541025 3.302947 0.40000001 0.80000001
5.1051846 3.5127745 0.40000001 0.80000001
6.6266608 3.3149896 0.40000001 0.80000001
7.2196808 3.4158008 0.51159996 0.7264483
19.895744 3.3648059 0.40000001 0.80000001
22.04657 3.445085 0.48259193 0.75822031
22.312002 3.370595 0.43795341 0.75186431
22.694311 3.3668976 0.48827451 0.77344525
23.002558 3.5774632 0.40000004 0.79999995
-4.9520035 3.7830434 0.54483855 0.74107051
-3.6518736 3.6357808 0.40000004 0.79999995
-2.1865301 3.6447792 0.40000001 0.80000001
0.58988547 3.6244028 0.5910458 0.82913315
0.77312601 3.7597737 0.45181918 0.75833243
4.8735023 3.6408308 0.45423129 0.74203241
5.1712828 3.6045742 0.40000001 0.80000001
6.8534956 3.6043079 0.40000001 0.80000001
6.9021034 3.6663046 0.40000001 0.80000001
7.4010324 3.7247171 0.47214299 0.72586346
15.23 3.7824068 0.37472302 0.71921748
15.407712 3.6051655 0.44367605 0.72271675
18.421364 3.6422493 0.40000001 0.79999995
19.895744 3.7451963 0.40000004 0.79999995
22.005838 3.7506609 0.40538743 0.75169772
23.006948 3.798522 0.40000001 0.80000001
-4.9851432 4.078414 0.48473486 0.74490035
-3.6519132 4.0094852 0.39999998 0.79999995
-2.1845551 3.9219685 0.40000001 0.80000001
0.93189168 4.0777769 0.43823272 0.75591147
4.9235463 3.9753625 0.40000001 0.80000001
5.3884621 3.9062018 0.40000004 0.79999995
5.4073477 3.9324298 0.40000001 0.80000001
7.0965333 3.9142916 0.40000001 0.80000001
7.2099509 4.0589504 0.40000001 0.80000001
7.7091684 4.1069536 0.46858731 0.71774215
15.007853 4.1347466 0.39216763 0.75927067
18.421364 4.0052538 0.39999998 0.79999995
19.895744 3.9983525 0.40000004 0.79999995
22.002352 4.1916046 0.39961085 0.75804442
23.006948 4.0940838 0.40000001 0.80000001
-4.9724331 4.3716545 0.52039552 0.7311039
-3.6521187 4.2569284 0.40000001 0.80000001
-3.3429704 4.2845583 0.39999998 0.79999995
-2.8637896 4.2955217 0.39999998 0.80000007
-2.4906664 4.2955222 0.40000001 0.80000001
-2.2324104 4.3392382 0.40000001 0.80000001
1.2198793 4.4110951 0.39329368 0.72796142
5.0217915 4.2105904 0.40000001 0.80000001
5.2334561 4.4410257 0.40000001 0.80000001
5.6056376 4.2078218 0.40000004 0.79999995
5.7000628 4.3389645 0.40000001 0.80000001
7.3233604 4.2035995 0.40000001 0.80000001
7.501596 4.4309311 0.40000001 0.80000001
7.9338913 4.4776897 0.49286413 0.73954898
14.736147 4.4543381 0.42475969 0.7751531
18.421364 4.2692571 0.40000004 0.79999995
19.894531 4.3073463 0.48181659 0.77473378
21.999878 4.4911489 0.41088808 0.75261033
23.006948 4.4934921 0.40000001 0.80000001
-4.9726801 4.6896448 0.53842682 0.7106384
-2.1389096 4.7042465 0.40000001 0.80000001
5.18713 4.6097589 0.40000001 0.80000001
5.6667666 4.6663518 0.52151346 0.82445556
5.8228216 4.5094562 0.40000001 0.80000001
6.0022306 4.7586265 0.40000001 0.80000001
7.5664062 4.5135937 0.40000001 0.80000001
8.1935215 4.7592764 0.38600054 0.71120048
14.671115 4.7651329 0.46263057 0.80380511
14.985734 4.7915707 0.40000001 0.80000001
15.243097 4.7910767 0.40000001 0.80000001
15.468269 4.7897406 0.40000001 0.80000001
15.725591 4.7868791 0.40000001 0.80000001
15.982884 4.7826037 0.40000001 0.80000001
16.36875 4.7733636 0.40000001 0.80000001
16.757082 4.7611914 0.40000001 0.80000001
18.421364 4.6322613 0.40000001 0.80000001
19.887218 4.6393008 0.48146173 0.77050751
-4.9787083 4.9665127 0.40000004 0.79999995
-2.1389096 5.0707059 0.40000001 0.80000001
1.5923223 4.8600006 0.36828625 0.72292733
5.2893009 4.8531609 0.40000001 0.80000001
5.4696064 5.0169187 0.40000001 0.80000001
5.8097773 4.8650832 0.47356662 0.78386521
6.0400019 4.8110833 0.40000001 0.80000001
7.794188 4.8041191 0.40000001 0.80000001
7.8041677 4.8168483 0.40000001 0.80000001
11.631325 5.0062542 0.48373765 0.72128153
11.84542 4.842701 0.4595592 0.72223425
13.923943 4.8049469 0.47632086 0.78393948
14.192406 4.8166056 0.47663543 0.78646445
14.480692 4.8199263 0.47650567 0.82356858
18.421364 5.0172663 0.40000001 0.80000001
19.886877 5.0378733 0.48421168 0.77800483
21.994911 4.8022742 0.396193 0.76402307
23.006948 4.8929005 0.40000001 0.80000001
-4.9787083 5.3114476 0.40000004 0.79999995
1.7978303 5.2485838 0.41245437 0.73533022
5.5327063 5.2206469 0.40000001 0.80000001
5.9807434 5.1412673 0.4356606 0.74520528
6.2571812 5.1127105 0.40000001 0.80000001
6.3043938 5.1782813 0.40000001 0.80000001
11.849057 5.1866293 0.39511085 0.74332392
13.748539 5.1583118 0.4465138 0.76835585
18.421364 5.2592692 0.40000004 0.79999995
19.895744 5.263833 0.40000001 0.80000001
21.913094 5.1385326 0.4442814 0.79415572
23.006948 5.2923088 0.40000001 0.80000001
-2.1389096 5.4936419 0.40000001 0.80000001
1.9157817 5.4934483 0.47307956 0.74520206
5.64887 5.4221001 0.40000001 0.80000001
5.9999228 5.6333761 0.40000001 0.80000001
6.121666 5.5558758 0.40000004 0.79999995
6.4649134 5.4012165 0.40000004 0.80000007
6.6065569 5.5979366 0.40000001 0.80000001
13.767659 5.5130444 0.40000001 0.80000001
18.363888 5.551116 0.46973455 0.79990286
19.881744 5.5679388 0.47309253 0.84473503
21.647476 5.5346837 0.48233026 0.80941474
23.006948 5.5878711 0.40000001 0.80000001
-4.9787083 5.718452 0.40000001 0.80000001
-2.1389096 5.8619776 0.40000001 0.80000001
2.0822566 5.740006 0.52108556 0.74829113
2.264339 5.8863506 0.42108887 0.7207756
5.8677211 5.7064123 0.40000001 0.80000001
6.1296701 5.9557333 0.40000001 0.80000001
6.3872719 5.8516369 0.40000004 0.79999995
6.6820984 5.7028508 0.40000001 0.80000001
13.755463 5.8062506 0.48280898 0.7898438
19.895744 5.7580004 0.39999998 0.79999995
21.997437 5.7132835 0.41996297 0.77204394
22.41256 5.8032045 0.54466254 0.83558798
22.904324 5.8395128 0.45898855 0.79850769
-4.9787083 6.1102066 0.40000001 0.80000001
2.5951469 6.1922522 0.40000001 0.80000001
6.1777821 6.1080608 0.40000001 0.80000001
6.33529 6.0417423 0.40000001 0.80000001
6.6729145 6.0975361 0.40000001 0.80000001
6.9052939 6.0128336 0.40000001 0.80000001
13.751826 6.194797 0.39524245 0.7821244
19.890575 6.0182667 0.47216713 0.78257167
23.00695 6.0911255 0.40000004 0.79999995
-4.9787083 6.4047656 0.40000001 0.80000001
-2.1389096 6.3658409 0.40000001 0.80000001
2.5951471 6.3212442 0.40000004 0.79999995
6.5044165 6.30264 0.40000001 0.80000001
6.6025066 6.3993769 0.40000001 0.80000001
6.9222331 6.4108295 0.40000001 0.80000001
9.3714342 6.3277302 0.39999998 0.79999995
9.8595247 6.3277302 0.39999998 0.79999995
10.381594 6.3989906 0.38921881 0.77575463
10.663335 6.3749342 0.48373175 0.77050769
10.933872 6.3412433 0.4916833 0.77667689
11.227636 6.3277302 0.40000004 0.79999995
11.607902 6.3277254 0.40000001 0.79999995
11.988151 6.3277111 0.39999998 0.79999995
12.241655 6.3276863 0.40000001 0.80000001
12.495157 6.3276358 0.39999998 0.79999995
12.857294 6.327436 0.39999998 0.79999995
13.34613 6.3261571 0.40000001 0.80000001
14.139394 6.3286734 0.40000001 0.80000001
14.521659 6.3286734 0.40000001 0.80000001
14.777966 6.3448973 0.48356074 0.79667783
15.152396 6.3286676 0.40000001 0.80000001
15.515547 6.3286581 0.40000001 0.80000001
15.761 6.3380246 0.47833472 0.75243556
16.023502 6.3286409 0.40000001 0.80000001
16.398499 6.3286166 0.40000001 0.80000001
16.757442 6.3285956 0.40000001 0.80000001
19.8927 6.305932 0.47209412 0.80796051
23.00695 6.4905338 0.40000004 0.79999995
-4.9787083 6.7023096 0.40000001 0.80000001
-2.1389096 6.8488173 0.40000001 0.80000001
2.5951469 6.6121235 0.40000001 0.80000001
10.378489 6.6226425 0.58549899 0.7694912
19.888245 6.673625 0.49802423 0.78462303
22.489468 6.7785416 0.55744308 0.70939493
22.786297 6.7257681 0.56463659 0.71779466
23.00695 6.7860961 0.40000004 0.79999995
-4.9787083 7.0091543 0.40000001 0.80000001
2.5951469 6.9030023 0.40000001 0.80000001
10.375468 6.9192114 0.58947277 0.74766922
19.895622 7.0043592 0.40000004 0.79999995
21.668459 7.0632362 0.46124199 0.73451889
21.98945 6.9563203 0.47832972 0.73787189
23.006948 7.0896468 0.40000001 0.80000001
-4.9787812 7.3079844 0.40000001 0.80000001
-2.1256514 7.3055377 0.40000001 0.80000001
2.3260801 7.4899964 0.54923272 0.73209143
2.5951467 7.2092705 0.40000004 0.79999995
2.7349019 7.4098129 0.40000004 0.79999995
3.1871469 7.4716172 0.56076598 0.70353067
3.6249363 7.4737744 0.57230669 0.70946276
3.9479494 7.4774737 0.55033398 0.71255022
4.3986702 7.4793978 0.51072651 0.7188772
4.753993 7.4902925 0.48088771 0.72992992
5.266037 7.4956298 0.52642202 0.73576295
5.7323174 7.4809594 0.54940677 0.75481701
6.0047865 7.4817743 0.54756635 0.75329769
6.350008 7.4478836 0.58451092 0.7108593
7.3339338 7.4650183 0.45448455 0.76585293
7.6362214 7.4688931 0.48108566 0.76725888
7.9881439 7.4529972 0.42687058 0.71443635
8.4001179 7.4785295 0.45924276 0.70702529
8.837945 7.4723845 0.53032321 0.7423321
9.2155399 7.4706297 0.55677855 0.74712539
9.5660019 7.48699 0.5164026 0.74311697
9.8952093 7.4964895 0.52208376 0.72551048
10.330345 7.3613539 0.55765742 0.73661995
10.584133 7.4101219 0.55871999 0.76469159
10.975503 7.4712553 0.5812332 0.73881185
11.232361 7.4521961 0.53364176 0.72179168
11.689003 7.4824042 0.54068476 0.73560292
12.024107 7.4864931 0.53952473 0.7366389
12.406132 7.4908972 0.506598 0.71709704
12.687169 7.4857712 0.50928587 0.72007275
12.982153 7.4906855 0.51241308 0.72543895
13.428671 7.4907274 0.51730734 0.73621273
13.711454 7.4913607 0.44884697 0.77057022
13.887535 7.4896364 0.50961351 0.70970047
14.156676 7.4906449 0.39010468 0.70962334
14.424948 7.4993563 0.54933536 0.70568764
15.520828 7.4848652 0.5525791 0.71126401
19.87978 7.3535976 0.44420722 0.76606953
20.151579 7.4969893 0.37867957 0.75819612
20.851313 7.4985237 0.3937797 0.75751281
21.215448 7.495553 0.39022586 0.76153505
21.66008 7.4247136 0.37686014 0.73776895
22.885386 7.4783349 0.40000001 0.80000001
-4.6888433 7.5032821 0.40000001 0.80000001
-4.2806263 7.5032821 0.40000001 0.80000001
-3.8834524 7.5032821 0.40000001 0.80000001
-3.4862788 7.5032821 0.40000001 0.80000001
-3.1883988 7.5032821 0.40000001 0.80000001
-2.8905184 7.5032821 0.40000001 0.80000001
-2.4836729 7.5032821 0.40000001 0.80000001
-1.7650893 7.5032821 0.40000001 0.80000001
-1.4491172 7.5032821 0.40000001 0.80000001
-1.0464406 7.5032821 0.40000001 0.80000001
-0.64321452 7.5032821 0.40000001 0.80000001
-0.32063401 7.5032821 0.40000001 0.80000001
-0.16301063 7.5032821 0.40000001 0.80000001
0.044253021 7.5032821 0.40000001 0.80000001
0.31614968 7.5032821 0.40000001 0.80000001
0.70809746 7.5032821 0.40000001 0.80000001
1.1049013 7.5032821 0.40000001 0.80000001
1.5057355 7.5032821 0.40000001 0.80000001
1.9069195 7.5032816 0.40000001 0.80000001
6.9460297 7.6891675 0.40000001 0.80000001
14.901887 7.5055218 0.45361868 0.73336554
15.160818 7.5401931 0.47708428 0.73148167
15.846202 7.5116215 0.54283792 0.72491127
16.09577 7.516602 0.55303639 0.7096712
16.399033 7.5116653 0.40000004 0.79999995
16.695997 7.5116653 0.40000001 0.80000001
16.994925 7.5116653 0.40000001 0.80000001
17.194057 7.5116653 0.40000001 0.80000001
17.492802 7.5116653 0.40000001 0.80000001
17.877665 7.5116653 0.40000001 0.80000001
18.280769 7.5116653 0.40000001 0.80000001
18.582321 7.5116653 0.40000001 0.80000001
18.793407 7.5116653 0.40000001 0.80000001
19.079882 7.5116653 0.40000001 0.80000001
19.486977 7.5116653 0.40000001 0.80000001
20.478086 7.5001965 0.39076009 0.76940387
22.080326 7.5116653 0.40000004 0.80000007
22.487421 7.5116653 0.40000001 0.80000001
8.6368885 -7.5016708 0.61325592 0.81507909
9.9223156 -7.5012083 0.60319567 0.74026769
13.375151 -7.5212364 0.61225313 0.78550947
13.682645 -7.5192909 0.60768944 0.78497952
13.969044 -7.523088 0.60268319 0.73984444
15.434962 -7.536849 0.65777332 0.70369011
-3.8112757 -7.4484968 0.66516972 0.91903675
-1.8535256 -7.3844833 0.63239771 0.89916879
2.3958766 -7.486444 0.66706103 0.71326637
2.6452804 -7.4943352 0.65518296 0.71989501
3.3053253 -7.4838243 0.61288559 0.7180993
3.7098372 -7.4911489 0.60401797 0.73059714
5.6536088 -7.4929152 0.73300141 0.91043931
5.8941813 -7.4938231 0.60386777 0.75533855
7.3754702 -7.4256115 0.62504447 0.78389525
10.28222 -7.4744091 0.61262387 0.81830567
10.592813 -7.460206 0.61278617 0.87896335
12.865171 -7.4899054 0.60892665 0.80375952
15.166773 -7.4870715 0.60211098 0.78820944
