# .PCD v0.7 - Point Cloud Data file format
VERSION 0.7
FIELDS x y z intensity
SIZE 4 4 4 4
TYPE F F F F
COUNT 1 1 1 1
WIDTH 1103
HEIGHT 1
VIEWPOINT 0 0 0 1 0 0 0
POINTS 1103
DATA ascii
10.415801 -4.0909166 0.65797043 0.74119687
10.415801 -4.0909166 0.70797038 0.74119687
10.415801 -4.0909166 0.75797039 0.74119687
10.415801 -4.0909166 0.8079704 0.74119687
10.415801 -4.0909166 0.85797042 0.74119687
10.415801 -4.0909166 0.90797043 0.74119687
10.415801 -4.0909166 0.95797038 0.74119687
10.415801 -4.0909166 1.0079705 0.74119687
-4.0017014 -3.8441148 0.40053183 0.76445776
-4.0017014 -3.8441148 0.45053184 0.76445776
-4.0017014 -3.8441148 0.50053185 0.76445776
-4.0017014 -3.8441148 0.5505318 0.76445776
-4.0017014 -3.8441148 0.60053182 0.76445776
-4.0017014 -3.8441148 0.65053183 0.76445776
-4.0017014 -3.8441148 0.70053184 0.76445776
-4.0017014 -3.8441148 0.75053185 0.76445776
-4.0017014 -3.8441148 0.8005318 0.76445776
-4.0017014 -3.8441148 0.85053182 0.76445776
-3.9786124 -3.8371639 0.40470263 0.76067144
-3.9786124 -3.8371639 0.45470265 0.76067144
-3.9786124 -3.8371639 0.50470263 0.76067144
-3.9786124 -3.8371639 0.55470264 0.76067144
-3.9786124 -3.8371639 0.60470265 0.76067144
-3.9786124 -3.8371639 0.65470266 0.76067144
-3.9786124 -3.8371639 0.70470262 0.76067144
-3.9786124 -3.8371639 0.75470263 0.76067144
-3.9786124 -3.8371639 0.80470264 0.76067144
-3.9786124 -3.8371639 0.85470265 0.76067144
-1.8587221 -3.8658834 0.43437684 0.82786655
-1.8587221 -3.8658834 0.48437685 0.82786655
-1.8587221 -3.8658834 0.53437686 0.82786655
-1.8587221 -3.8658834 0.58437681 0.82786655
-1.8587221 -3.8658834 0.63437682 0.82786655
-1.8587221 -3.8658834 0.68437684 0.82786655
-1.8587221 -3.8658834 0.73437685 0.82786655
-1.8587221 -3.8658834 0.78437686 0.82786655
-1.8587221 -3.8658834 0.83437681 0.82786655
-1.8587221 -3.8658834 0.88437682 0.82786655
-1.6775293 -3.9045753 0.49116462 0.79592544
-1.6775293 -3.9045753 0.54116464 0.79592544
-1.6775293 -3.9045753 0.59116465 0.79592544
-1.6775293 -3.9045753 0.6411646 0.79592544
-1.6775293 -3.9045753 0.69116461 0.79592544
-1.6775293 -3.9045753 0.74116462 0.79592544
-1.6775293 -3.9045753 0.79116464 0.79592544
-1.6775293 -3.9045753 0.84116465 0.79592544
-1.6775293 -3.9045753 0.8911646 0.79592544
-1.6775293 -3.9045753 0.94116461 0.79592544
-0.42152154 -3.9155159 0.4409422 0.74637997
-0.42152154 -3.9155159 0.49094221 0.74637997
-0.42152154 -3.9155159 0.54094219 0.74637997
-0.42152154 -3.9155159 0.5909422 0.74637997
-0.42152154 -3.9155159 0.64094222 0.74637997
-0.42152154 -3.9155159 0.69094217 0.74637997
-0.42152154 -3.9155159 0.74094218 0.74637997
-0.42152154 -3.9155159 0.79094219 0.74637997
-0.42152154 -3.9155159 0.8409422 0.74637997
-0.42152154 -3.9155159 0.89094222 0.74637997
-0.26401103 -3.9031959 0.51418275 0.79576826
-0.26401103 -3.9031959 0.56418276 0.79576826
-0.26401103 -3.9031959 0.61418277 0.79576826
-0.26401103 -3.9031959 0.66418272 0.79576826
-0.26401103 -3.9031959 0.71418273 0.79576826
-0.26401103 -3.9031959 0.76418275 0.79576826
-0.26401103 -3.9031959 0.81418276 0.79576826
-0.26401103 -3.9031959 0.86418277 0.79576826
-0.26401103 -3.9031959 0.91418272 0.79576826
-0.26401103 -3.9031959 0.96418273 0.79576826
-0.19853556 -3.9104958 0.58179307 0.91531456
-0.19853556 -3.9104958 0.63179308 0.91531456
-0.19853556 -3.9104958 0.68179309 0.91531456
-0.19853556 -3.9104958 0.73179305 0.91531456
-0.19853556 -3.9104958 0.78179306 0.91531456
-0.19853556 -3.9104958 0.83179307 0.91531456
-0.19853556 -3.9104958 0.88179308 0.91531456
-0.19853556 -3.9104958 0.93179309 0.91531456
-0.19853556 -3.9104958 0.98179305 0.91531456
-0.19853556 -3.9104958 1.0317931 0.91531456
2.5926869 -3.8336868 0.49924758 0.72099417
2.5926869 -3.8336868 0.54924756 0.72099417
2.5926869 -3.8336868 0.59924757 0.72099417
2.5926869 -3.8336868 0.64924759 0.72099417
2.5926869 -3.8336868 0.6992476 0.72099417
2.5926869 -3.8336868 0.74924755 0.72099417
2.5926869 -3.8336868 0.79924756 0.72099417
2.5926869 -3.8336868 0.84924757 0.72099417
2.5926869 -3.8336868 0.89924759 0.72099417
2.5926869 -3.8336868 0.9492476 0.72099417
2.7520981 -3.9848363 0.45081806 0.70379043
2.7520981 -3.9848363 0.50081807 0.70379043
2.7520981 -3.9848363 0.55081809 0.70379043
2.7520981 -3.9848363 0.60081804 0.70379043
2.7520981 -3.9848363 0.65081805 0.70379043
2.7520981 -3.9848363 0.70081806 0.70379043
2.7520981 -3.9848363 0.75081807 0.70379043
2.7520981 -3.9848363 0.80081809 0.70379043
2.7520981 -3.9848363 0.85081804 0.70379043
2.7520981 -3.9848363 0.90081805 0.70379043
2.8096209 -3.9661624 0.44324756 0.72140181
2.8096209 -3.9661624 0.49324757 0.72140181
2.8096209 -3.9661624 0.54324758 0.72140181
2.8096209 -3.9661624 0.59324753 0.72140181
2.8096209 -3.9661624 0.64324754 0.72140181
2.8096209 -3.9661624 0.69324756 0.72140181
2.8096209 -3.9661624 0.74324757 0.72140181
2.8096209 -3.9661624 0.79324758 0.72140181
2.8096209 -3.9661624 0.84324753 0.72140181
2.8096209 -3.9661624 0.89324754 0.72140181
10.391219 -3.998735 0.42205888 0.70974559
10.391219 -3.998735 0.47205889 0.70974559
10.391219 -3.998735 0.5220589 0.70974559
10.391219 -3.998735 0.57205886 0.70974559
10.391219 -3.998735 0.62205887 0.70974559
10.391219 -3.998735 0.67205888 0.70974559
10.391219 -3.998735 0.72205889 0.70974559
10.391219 -3.998735 0.7720589 0.70974559
10.391219 -3.998735 0.82205886 0.70974559
10.391219 -3.998735 0.87205887 0.70974559
10.530595 -3.9218147 0.55599129 0.74385673
10.530595 -3.9218147 0.6059913 0.74385673
10.530595 -3.9218147 0.65599132 0.74385673
10.530595 -3.9218147 0.70599127 0.74385673
10.530595 -3.9218147 0.75599128 0.74385673
10.530595 -3.9218147 0.80599129 0.74385673
10.530595 -3.9218147 0.8559913 0.74385673
10.530595 -3.9218147 0.90599132 0.74385673
10.530595 -3.9218147 0.95599127 0.74385673
10.530595 -3.9218147 1.0059913 0.74385673
10.607244 -3.8083968 0.5467217 0.736081
10.607244 -3.8083968 0.59672171 0.736081
10.607244 -3.8083968 0.64672172 0.736081
10.607244 -3.8083968 0.69672167 0.736081
10.607244 -3.8083968 0.74672168 0.736081
10.607244 -3.8083968 0.7967217 0.736081
10.607244 -3.8083968 0.84672171 0.736081
10.607244 -3.8083968 0.89672172 0.736081
10.607244 -3.8083968 0.94672167 0.736081
10.607244 -3.8083968 0.99672168 0.736081
-4.0012503 -3.674886 0.40827864 0.79155022
-4.0012503 -3.674886 0.45827866 0.79155022
-4.0012503 -3.674886 0.50827867 0.79155022
-4.0012503 -3.674886 0.55827862 0.79155022
-4.0012503 -3.674886 0.60827863 0.79155022
-4.0012503 -3.674886 0.65827864 0.79155022
-4.0012503 -3.674886 0.70827866 0.79155022
-4.0012503 -3.674886 0.75827867 0.79155022
-4.0012503 -3.674886 0.80827862 0.79155022
-4.0012503 -3.674886 0.85827863 0.79155022
-3.9749689 -3.7174411 0.40077996 0.71035206
-3.9749689 -3.7174411 0.45077997 0.71035206
-3.9749689 -3.7174411 0.50077999 0.71035206
-3.9749689 -3.7174411 0.55077994 0.71035206
-3.9749689 -3.7174411 0.60077995 0.71035206
-3.9749689 -3.7174411 0.65077996 0.71035206
-3.9749689 -3.7174411 0.70077997 0.71035206
-3.9749689 -3.7174411 0.75077999 0.71035206
-3.9749689 -3.7174411 0.80077994 0.71035206
-3.9749689 -3.7174411 0.85077995 0.71035206
-1.8563199 -3.7215617 0.52323395 0.91742444
-1.8563199 -3.7215617 0.57323396 0.91742444
-1.8563199 -3.7215617 0.62323397 0.91742444
-1.8563199 -3.7215617 0.67323393 0.91742444
-1.8563199 -3.7215617 0.72323394 0.91742444
-1.8563199 -3.7215617 0.77323395 0.91742444
-1.8563199 -3.7215617 0.82323396 0.91742444
-1.8563199 -3.7215617 0.87323397 0.91742444
-1.8563199 -3.7215617 0.92323393 0.91742444
-1.8563199 -3.7215617 0.97323394 0.91742444
-1.7232145 -3.7059689 0.50165951 0.833516
-1.7232145 -3.7059689 0.55165952 0.833516
-1.7232145 -3.7059689 0.60165954 0.833516
-1.7232145 -3.7059689 0.65165949 0.833516
-1.7232145 -3.7059689 0.7016595 0.833516
-1.7232145 -3.7059689 0.75165951 0.833516
-1.7232145 -3.7059689 0.80165952 0.833516
-1.7232145 -3.7059689 0.85165954 0.833516
-1.7232145 -3.7059689 0.90165949 0.833516
-1.7232145 -3.7059689 0.9516595 0.833516
-0.27117682 -3.7067206 0.49978423 0.77759653
-0.27117682 -3.7067206 0.54978424 0.77759653
-0.27117682 -3.7067206 0.59978426 0.77759653
-0.27117682 -3.7067206 0.64978421 0.77759653
-0.27117682 -3.7067206 0.69978422 0.77759653
-0.27117682 -3.7067206 0.74978423 0.77759653
-0.27117682 -3.7067206 0.79978424 0.77759653
-0.27117682 -3.7067206 0.84978426 0.77759653
-0.27117682 -3.7067206 0.89978421 0.77759653
-0.27117682 -3.7067206 0.94978422 0.77759653
-0.19932483 -3.7797284 0.57492912 0.91760147
-0.19932483 -3.7797284 0.62492913 0.91760147
-0.19932483 -3.7797284 0.67492914 0.91760147
-0.19932483 -3.7797284 0.72492909 0.91760147
-0.19932483 -3.7797284 0.77492911 0.91760147
-0.19932483 -3.7797284 0.82492912 0.91760147
-0.19932483 -3.7797284 0.87492913 0.91760147
-0.19932483 -3.7797284 0.92492914 0.91760147
-0.19932483 -3.7797284 0.97492909 0.91760147
-0.19932483 -3.7797284 1.0249292 0.91760147
2.5269485 -3.6816826 0.46565497 0.71504587
2.5269485 -3.6816826 0.51565498 0.71504587
2.5269485 -3.6816826 0.56565499 0.71504587
2.5269485 -3.6816826 0.61565495 0.71504587
2.5269485 -3.6816826 0.66565496 0.71504587
2.5269485 -3.6816826 0.71565497 0.71504587
2.5269485 -3.6816826 0.76565498 0.71504587
2.5269485 -3.6816826 0.81565499 0.71504587
2.5269485 -3.6816826 0.86565495 0.71504587
2.5269485 -3.6816826 0.91565496 0.71504587
2.6338587 -3.7188587 0.4296287 0.71731949
2.6338587 -3.7188587 0.47962871 0.71731949
2.6338587 -3.7188587 0.52962869 0.71731949
2.6338587 -3.7188587 0.57962871 0.71731949
2.6338587 -3.7188587 0.62962872 0.71731949
2.6338587 -3.7188587 0.67962873 0.71731949
2.6338587 -3.7188587 0.72962868 0.71731949
2.6338587 -3.7188587 0.77962869 0.71731949
2.6338587 -3.7188587 0.82962871 0.71731949
2.6338587 -3.7188587 0.87962872 0.71731949
10.59795 -3.787245 0.52312654 0.71764946
10.59795 -3.787245 0.57312655 0.71764946
10.59795 -3.787245 0.62312657 0.71764946
10.59795 -3.787245 0.67312652 0.71764946
10.59795 -3.787245 0.72312653 0.71764946
10.59795 -3.787245 0.77312654 0.71764946
10.59795 -3.787245 0.82312655 0.71764946
10.59795 -3.787245 0.87312657 0.71764946
10.59795 -3.787245 0.92312652 0.71764946
10.59795 -3.787245 0.97312653 0.71764946
10.662663 -3.7397947 0.55328983 0.74304086
10.662663 -3.7397947 0.60328984 0.74304086
10.662663 -3.7397947 0.65328985 0.74304086
10.662663 -3.7397947 0.70328981 0.74304086
10.662663 -3.7397947 0.75328982 0.74304086
10.662663 -3.7397947 0.80328983 0.74304086
10.662663 -3.7397947 0.85328984 0.74304086
10.662663 -3.7397947 0.90328985 0.74304086
10.662663 -3.7397947 0.95328981 0.74304086
10.662663 -3.7397947 1.0032898 0.74304086
10.804364 -3.6180291 0.58296233 0.74622667
10.804364 -3.6180291 0.63296235 0.74622667
10.804364 -3.6180291 0.68296236 0.74622667
10.804364 -3.6180291 0.73296231 0.74622667
10.804364 -3.6180291 0.78296232 0.74622667
10.804364 -3.6180291 0.83296233 0.74622667
10.804364 -3.6180291 0.88296235 0.74622667
10.804364 -3.6180291 0.93296236 0.74622667
10.804364 -3.6180291 0.98296231 0.74622667
10.804364 -3.6180291 1.0329623 0.74622667
-4.8304815 -3.4043474 0.43315029 0.77356648
-4.8304815 -3.4043474 0.4831503 0.77356648
-4.8304815 -3.4043474 0.53315032 0.77356648
-4.8304815 -3.4043474 0.58315027 0.77356648
-4.8304815 -3.4043474 0.63315028 0.77356648
-4.8304815 -3.4043474 0.68315029 0.77356648
-4.8304815 -3.4043474 0.7331503 0.77356648
-4.8304815 -3.4043474 0.78315032 0.77356648
-4.8304815 -3.4043474 0.83315027 0.77356648
-4.8304815 -3.4043474 0.88315028 0.77356648
-4.5669541 -3.4257312 0.51135546 0.76620173
-4.5669541 -3.4257312 0.56135547 0.76620173
-4.5669541 -3.4257312 0.61135548 0.76620173
-4.5669541 -3.4257312 0.66135544 0.76620173
-4.5669541 -3.4257312 0.71135545 0.76620173
-4.5669541 -3.4257312 0.76135546 0.76620173
-4.5669541 -3.4257312 0.81135547 0.76620173
-4.5669541 -3.4257312 0.86135548 0.76620173
-4.5669541 -3.4257312 0.91135544 0.76620173
-4.5669541 -3.4257312 0.96135545 0.76620173
-4.3102689 -3.4085371 0.54448938 0.78786641
-4.3102689 -3.4085371 0.5944894 0.78786641
-4.3102689 -3.4085371 0.64448941 0.78786641
-4.3102689 -3.4085371 0.69448936 0.78786641
-4.3102689 -3.4085371 0.74448937 0.78786641
-4.3102689 -3.4085371 0.79448938 0.78786641
-4.3102689 -3.4085371 0.8444894 0.78786641
-4.3102689 -3.4085371 0.89448941 0.78786641
-4.3102689 -3.4085371 0.94448936 0.78786641
-4.3102689 -3.4085371 0.99448937 0.78786641
-4.0818973 -3.4199862 0.54182661 0.78508526
-4.0818973 -3.4199862 0.59182662 0.78508526
-4.0818973 -3.4199862 0.64182663 0.78508526
-4.0818973 -3.4199862 0.69182658 0.78508526
-4.0818973 -3.4199862 0.74182659 0.78508526
-4.0818973 -3.4199862 0.79182661 0.78508526
-4.0818973 -3.4199862 0.84182662 0.78508526
-4.0818973 -3.4199862 0.89182663 0.78508526
-4.0818973 -3.4199862 0.94182658 0.78508526
-4.0818973 -3.4199862 0.99182659 0.78508526
-3.973532 -3.5661869 0.40370023 0.75279343
-3.973532 -3.5661869 0.45370024 0.75279343
-3.973532 -3.5661869 0.50370026 0.75279343
-3.973532 -3.5661869 0.55370021 0.75279343
-3.973532 -3.5661869 0.60370022 0.75279343
-3.973532 -3.5661869 0.65370023 0.75279343
-3.973532 -3.5661869 0.70370024 0.75279343
-3.973532 -3.5661869 0.75370026 0.75279343
-3.973532 -3.5661869 0.80370021 0.75279343
-3.973532 -3.5661869 0.85370022 0.75279343
-1.8266026 -3.5584147 0.51341742 0.86573535
-1.8266026 -3.5584147 0.56341743 0.86573535
-1.8266026 -3.5584147 0.61341745 0.86573535
-1.8266026 -3.5584147 0.6634174 0.86573535
-1.8266026 -3.5584147 0.71341741 0.86573535
-1.8266026 -3.5584147 0.76341742 0.86573535
-1.8266026 -3.5584147 0.81341743 0.86573535
-1.8266026 -3.5584147 0.86341745 0.86573535
-1.8266026 -3.5584147 0.9134174 0.86573535
-1.8266026 -3.5584147 0.96341741 0.86573535
-1.7570537 -3.5783658 0.50857747 0.87008685
-1.7570537 -3.5783658 0.55857748 0.87008685
-1.7570537 -3.5783658 0.60857749 0.87008685
-1.7570537 -3.5783658 0.65857744 0.87008685
-1.7570537 -3.5783658 0.70857745 0.87008685
-1.7570537 -3.5783658 0.75857747 0.87008685
-1.7570537 -3.5783658 0.80857748 0.87008685
-1.7570537 -3.5783658 0.85857749 0.87008685
-1.7570537 -3.5783658 0.90857744 0.87008685
-1.7570537 -3.5783658 0.95857745 0.87008685
-0.42265832 -3.5550046 0.432356 0.76061958
-0.42265832 -3.5550046 0.48235601 0.76061958
-0.42265832 -3.5550046 0.53235602 0.76061958
-0.42265832 -3.5550046 0.58235598 0.76061958
-0.42265832 -3.5550046 0.63235599 0.76061958
-0.42265832 -3.5550046 0.682356 0.76061958
-0.42265832 -3.5550046 0.73235601 0.76061958
-0.42265832 -3.5550046 0.78235602 0.76061958
-0.42265832 -3.5550046 0.83235598 0.76061958
-0.42265832 -3.5550046 0.88235599 0.76061958
-0.27727807 -3.4849451 0.4900206 0.76235145
-0.27727807 -3.4849451 0.54002059 0.76235145
-0.27727807 -3.4849451 0.5900206 0.76235145
-0.27727807 -3.4849451 0.64002061 0.76235145
-0.27727807 -3.4849451 0.69002062 0.76235145
-0.27727807 -3.4849451 0.74002063 0.76235145
-0.27727807 -3.4849451 0.79002059 0.76235145
-0.27727807 -3.4849451 0.8400206 0.76235145
-0.27727807 -3.4849451 0.89002061 0.76235145
-0.27727807 -3.4849451 0.94002062 0.76235145
-0.19746614 -3.582926 0.59920359 0.87484258
-0.19746614 -3.582926 0.6492036 0.87484258
-0.19746614 -3.582926 0.69920361 0.87484258
-0.19746614 -3.582926 0.74920356 0.87484258
-0.19746614 -3.582926 0.79920357 0.87484258
-0.19746614 -3.582926 0.84920359 0.87484258
-0.19746614 -3.582926 0.8992036 0.87484258
-0.19746614 -3.582926 0.94920361 0.87484258
-0.19746614 -3.582926 0.99920356 0.87484258
-0.19746614 -3.582926 1.0492036 0.87484258
2.3647904 -3.4237959 0.54373765 0.70866311
2.3647904 -3.4237959 0.59373766 0.70866311
2.3647904 -3.4237959 0.64373767 0.70866311
2.3647904 -3.4237959 0.69373763 0.70866311
2.3647904 -3.4237959 0.74373764 0.70866311
2.3647904 -3.4237959 0.79373765 0.70866311
2.3647904 -3.4237959 0.84373766 0.70866311
2.3647904 -3.4237959 0.89373767 0.70866311
2.3647904 -3.4237959 0.94373763 0.70866311
2.3647904 -3.4237959 0.99373764 0.70866311
2.443707 -3.4723468 0.51221597 0.72714877
2.443707 -3.4723468 0.56221598 0.72714877
2.443707 -3.4723468 0.612216 0.72714877
2.443707 -3.4723468 0.66221595 0.72714877
2.443707 -3.4723468 0.71221596 0.72714877
2.443707 -3.4723468 0.76221597 0.72714877
2.443707 -3.4723468 0.81221598 0.72714877
2.443707 -3.4723468 0.862216 0.72714877
2.443707 -3.4723468 0.91221595 0.72714877
2.443707 -3.4723468 0.96221596 0.72714877
10.776882 -3.5804584 0.54077178 0.73305744
10.776882 -3.5804584 0.59077179 0.73305744
10.776882 -3.5804584 0.64077181 0.73305744
10.776882 -3.5804584 0.69077176 0.73305744
10.776882 -3.5804584 0.74077177 0.73305744
10.776882 -3.5804584 0.79077178 0.73305744
10.776882 -3.5804584 0.84077179 0.73305744
10.776882 -3.5804584 0.89077181 0.73305744
10.776882 -3.5804584 0.94077176 0.73305744
10.776882 -3.5804584 0.99077177 0.73305744
10.825119 -3.5172415 0.5410614 0.73413998
10.825119 -3.5172415 0.59106141 0.73413998
10.825119 -3.5172415 0.64106143 0.73413998
10.825119 -3.5172415 0.69106138 0.73413998
10.825119 -3.5172415 0.74106139 0.73413998
10.825119 -3.5172415 0.7910614 0.73413998
10.825119 -3.5172415 0.84106141 0.73413998
10.825119 -3.5172415 0.89106143 0.73413998
10.825119 -3.5172415 0.94106138 0.73413998
10.825119 -3.5172415 0.99106139 0.73413998
-5.0066214 -3.2079451 0.51184464 0.76833069
-5.0066214 -3.2079451 0.56184465 0.76833069
-5.0066214 -3.2079451 0.61184466 0.76833069
-5.0066214 -3.2079451 0.66184461 0.76833069
-5.0066214 -3.2079451 0.71184462 0.76833069
-5.0066214 -3.2079451 0.76184464 0.76833069
-5.0066214 -3.2079451 0.81184465 0.76833069
-5.0066214 -3.2079451 0.86184466 0.76833069
-5.0066214 -3.2079451 0.91184461 0.76833069
-5.0066214 -3.2079451 0.96184462 0.76833069
-4.9538722 -3.2701836 0.51007301 0.76698029
-4.9538722 -3.2701836 0.56007302 0.76698029
-4.9538722 -3.2701836 0.61007303 0.76698029
-4.9538722 -3.2701836 0.66007298 0.76698029
-4.9538722 -3.2701836 0.71007299 0.76698029
-4.9538722 -3.2701836 0.76007301 0.76698029
-4.9538722 -3.2701836 0.81007302 0.76698029
-4.9538722 -3.2701836 0.86007303 0.76698029
-4.9538722 -3.2701836 0.91007298 0.76698029
-4.9538722 -3.2701836 0.96007299 0.76698029
-4.7916298 -3.3582621 0.50323689 0.75639361
-4.7916298 -3.3582621 0.5532369 0.75639361
-4.7916298 -3.3582621 0.60323691 0.75639361
-4.7916298 -3.3582621 0.65323687 0.75639361
-4.7916298 -3.3582621 0.70323688 0.75639361
-4.7916298 -3.3582621 0.75323689 0.75639361
-4.7916298 -3.3582621 0.8032369 0.75639361
-4.7916298 -3.3582621 0.85323691 0.75639361
-4.7916298 -3.3582621 0.90323687 0.75639361
-4.7916298 -3.3582621 0.95323688 0.75639361
-4.5883641 -3.359489 0.49314603 0.74298429
-4.5883641 -3.359489 0.54314601 0.74298429
-4.5883641 -3.359489 0.59314603 0.74298429
-4.5883641 -3.359489 0.64314604 0.74298429
-4.5883641 -3.359489 0.69314605 0.74298429
-4.5883641 -3.359489 0.74314606 0.74298429
-4.5883641 -3.359489 0.79314601 0.74298429
-4.5883641 -3.359489 0.84314603 0.74298429
-4.5883641 -3.359489 0.89314604 0.74298429
-4.5883641 -3.359489 0.94314605 0.74298429
-4.2351456 -3.3601952 0.58772945 0.72639239
-4.2351456 -3.3601952 0.63772947 0.72639239
-4.2351456 -3.3601952 0.68772948 0.72639239
-4.2351456 -3.3601952 0.73772943 0.72639239
-4.2351456 -3.3601952 0.78772944 0.72639239
-4.2351456 -3.3601952 0.83772945 0.72639239
-4.2351456 -3.3601952 0.88772947 0.72639239
-4.2351456 -3.3601952 0.93772948 0.72639239
-4.2351456 -3.3601952 0.98772943 0.72639239
-4.2351456 -3.3601952 1.0377295 0.72639239
-4.0866108 -3.3745117 0.52877986 0.77203256
-4.0866108 -3.3745117 0.57877988 0.77203256
-4.0866108 -3.3745117 0.62877989 0.77203256
-4.0866108 -3.3745117 0.67877984 0.77203256
-4.0866108 -3.3745117 0.72877985 0.77203256
-4.0866108 -3.3745117 0.77877986 0.77203256
-4.0866108 -3.3745117 0.82877988 0.77203256
-4.0866108 -3.3745117 0.87877989 0.77203256
-4.0866108 -3.3745117 0.92877984 0.77203256
-4.0866108 -3.3745117 0.97877985 0.77203256
-3.9935589 -3.3747494 0.44368514 0.7575683
-3.9935589 -3.3747494 0.49368516 0.7575683
-3.9935589 -3.3747494 0.54368514 0.7575683
-3.9935589 -3.3747494 0.59368515 0.7575683
-3.9935589 -3.3747494 0.64368516 0.7575683
-3.9935589 -3.3747494 0.69368517 0.7575683
-3.9935589 -3.3747494 0.74368513 0.7575683
-3.9935589 -3.3747494 0.79368514 0.7575683
-3.9935589 -3.3747494 0.84368515 0.7575683
-3.9935589 -3.3747494 0.89368516 0.7575683
-0.41837811 -3.2614861 0.42552829 0.71744967
-0.41837811 -3.2614861 0.4755283 0.71744967
-0.41837811 -3.2614861 0.52552831 0.71744967
-0.41837811 -3.2614861 0.57552826 0.71744967
-0.41837811 -3.2614861 0.62552828 0.71744967
-0.41837811 -3.2614861 0.67552829 0.71744967
-0.41837811 -3.2614861 0.7255283 0.71744967
-0.41837811 -3.2614861 0.77552831 0.71744967
-0.41837811 -3.2614861 0.82552826 0.71744967
-0.41837811 -3.2614861 0.87552828 0.71744967
-0.2701855 -3.3021481 0.50177628 0.76694942
-0.2701855 -3.3021481 0.55177629 0.76694942
-0.2701855 -3.3021481 0.6017763 0.76694942
-0.2701855 -3.3021481 0.65177625 0.76694942
-0.2701855 -3.3021481 0.70177627 0.76694942
-0.2701855 -3.3021481 0.75177628 0.76694942
-0.2701855 -3.3021481 0.80177629 0.76694942
-0.2701855 -3.3021481 0.8517763 0.76694942
-0.2701855 -3.3021481 0.90177625 0.76694942
-0.2701855 -3.3021481 0.95177627 0.76694942
-0.18516305 -3.2076969 0.59136373 0.85064471
-0.18516305 -3.2076969 0.64136374 0.85064471
-0.18516305 -3.2076969 0.69136375 0.85064471
-0.18516305 -3.2076969 0.7413637 0.85064471
-0.18516305 -3.2076969 0.79136372 0.85064471
-0.18516305 -3.2076969 0.84136373 0.85064471
-0.18516305 -3.2076969 0.89136374 0.85064471
-0.18516305 -3.2076969 0.94136375 0.85064471
-0.18516305 -3.2076969 0.9913637 0.85064471
-0.18516305 -3.2076969 1.0413637 0.85064471
2.3937249 -3.2258272 0.55997586 0.80190969
2.3937249 -3.2258272 0.60997587 0.80190969
2.3937249 -3.2258272 0.65997589 0.80190969
2.3937249 -3.2258272 0.70997584 0.80190969
2.3937249 -3.2258272 0.75997585 0.80190969
2.3937249 -3.2258272 0.80997586 0.80190969
2.3937249 -3.2258272 0.85997587 0.80190969
2.3937249 -3.2258272 0.90997589 0.80190969
2.3937249 -3.2258272 0.95997584 0.80190969
2.3937249 -3.2258272 1.0099759 0.80190969
2.4119549 -3.2113616 0.5704453 0.84143889
2.4119549 -3.2113616 0.62044531 0.84143889
2.4119549 -3.2113616 0.67044532 0.84143889
2.4119549 -3.2113616 0.72044528 0.84143889
2.4119549 -3.2113616 0.77044529 0.84143889
2.4119549 -3.2113616 0.8204453 0.84143889
2.4119549 -3.2113616 0.87044531 0.84143889
2.4119549 -3.2113616 0.92044532 0.84143889
2.4119549 -3.2113616 0.97044528 0.84143889
2.4119549 -3.2113616 1.0204453 0.84143889
2.6067896 -3.2717724 0.40569857 0.72107142
2.6067896 -3.2717724 0.45569858 0.72107142
2.6067896 -3.2717724 0.50569856 0.72107142
2.6067896 -3.2717724 0.55569857 0.72107142
2.6067896 -3.2717724 0.60569859 0.72107142
2.6067896 -3.2717724 0.65569854 0.72107142
2.6067896 -3.2717724 0.70569855 0.72107142
2.6067896 -3.2717724 0.75569856 0.72107142
2.6067896 -3.2717724 0.80569857 0.72107142
2.6067896 -3.2717724 0.85569859 0.72107142
10.948897 -3.2364159 0.54083091 0.74267727
10.948897 -3.2364159 0.59083092 0.74267727
10.948897 -3.2364159 0.64083093 0.74267727
10.948897 -3.2364159 0.69083089 0.74267727
10.948897 -3.2364159 0.7408309 0.74267727
10.948897 -3.2364159 0.79083091 0.74267727
10.948897 -3.2364159 0.84083092 0.74267727
10.948897 -3.2364159 0.89083093 0.74267727
10.948897 -3.2364159 0.94083089 0.74267727
10.948897 -3.2364159 0.9908309 0.74267727
11.051405 -3.2093315 0.52389741 0.71973377
11.051405 -3.2093315 0.57389742 0.71973377
11.051405 -3.2093315 0.62389743 0.71973377
11.051405 -3.2093315 0.67389739 0.71973377
11.051405 -3.2093315 0.7238974 0.71973377
11.051405 -3.2093315 0.77389741 0.71973377
11.051405 -3.2093315 0.82389742 0.71973377
11.051405 -3.2093315 0.87389743 0.71973377
11.051405 -3.2093315 0.92389739 0.71973377
11.051405 -3.2093315 0.9738974 0.71973377
-5.0004363 -3.1339567 0.51057649 0.7672084
-5.0004363 -3.1339567 0.5605765 0.7672084
-5.0004363 -3.1339567 0.61057651 0.7672084
-5.0004363 -3.1339567 0.66057646 0.7672084
-5.0004363 -3.1339567 0.71057647 0.7672084
-5.0004363 -3.1339567 0.76057649 0.7672084
-5.0004363 -3.1339567 0.8105765 0.7672084
-5.0004363 -3.1339567 0.86057651 0.7672084
-5.0004363 -3.1339567 0.91057646 0.7672084
-5.0004363 -3.1339567 0.96057647 0.7672084
-4.9777832 -3.0968554 0.5089801 0.76741624
-4.9777832 -3.0968554 0.55898011 0.76741624
-4.9777832 -3.0968554 0.60898012 0.76741624
-4.9777832 -3.0968554 0.65898007 0.76741624
-4.9777832 -3.0968554 0.70898008 0.76741624
-4.9777832 -3.0968554 0.7589801 0.76741624
-4.9777832 -3.0968554 0.80898011 0.76741624
-4.9777832 -3.0968554 0.85898012 0.76741624
-4.9777832 -3.0968554 0.90898007 0.76741624
-4.9777832 -3.0968554 0.95898008 0.76741624
-0.22818482 -3.1670275 0.49134055 0.74981594
-0.22818482 -3.1670275 0.54134053 0.74981594
-0.22818482 -3.1670275 0.59134054 0.74981594
-0.22818482 -3.1670275 0.64134055 0.74981594
-0.22818482 -3.1670275 0.69134057 0.74981594
-0.22818482 -3.1670275 0.74134052 0.74981594
-0.22818482 -3.1670275 0.79134053 0.74981594
-0.22818482 -3.1670275 0.84134054 0.74981594
-0.22818482 -3.1670275 0.89134055 0.74981594
-0.22818482 -3.1670275 0.94134057 0.74981594
-0.11959745 -3.082139 0.52515757 0.80224484
-0.11959745 -3.082139 0.57515758 0.80224484
-0.11959745 -3.082139 0.62515759 0.80224484
-0.11959745 -3.082139 0.67515755 0.80224484
-0.11959745 -3.082139 0.72515756 0.80224484
-0.11959745 -3.082139 0.77515757 0.80224484
-0.11959745 -3.082139 0.82515758 0.80224484
-0.11959745 -3.082139 0.87515759 0.80224484
-0.11959745 -3.082139 0.92515755 0.80224484
-0.11959745 -3.082139 0.97515756 0.80224484
0.085397996 -3.0249805 0.52545059 0.79395223
0.085397996 -3.0249805 0.5754506 0.79395223
0.085397996 -3.0249805 0.62545061 0.79395223
0.085397996 -3.0249805 0.67545056 0.79395223
0.085397996 -3.0249805 0.72545058 0.79395223
0.085397996 -3.0249805 0.77545059 0.79395223
0.085397996 -3.0249805 0.8254506 0.79395223
0.085397996 -3.0249805 0.87545061 0.79395223
0.085397996 -3.0249805 0.92545056 0.79395223
0.085397996 -3.0249805 0.97545058 0.79395223
0.27861297 -3.0336928 0.55484354 0.82632071
0.27861297 -3.0336928 0.60484356 0.82632071
0.27861297 -3.0336928 0.65484357 0.82632071
0.27861297 -3.0336928 0.70484352 0.82632071
0.27861297 -3.0336928 0.75484353 0.82632071
0.27861297 -3.0336928 0.80484354 0.82632071
0.27861297 -3.0336928 0.85484356 0.82632071
0.27861297 -3.0336928 0.90484357 0.82632071
0.27861297 -3.0336928 0.95484352 0.82632071
0.27861297 -3.0336928 1.0048436 0.82632071
0.59578407 -3.0012426 0.55500305 0.83441371
0.59578407 -3.0012426 0.60500306 0.83441371
0.59578407 -3.0012426 0.65500307 0.83441371
0.59578407 -3.0012426 0.70500302 0.83441371
0.59578407 -3.0012426 0.75500304 0.83441371
0.59578407 -3.0012426 0.80500305 0.83441371
0.59578407 -3.0012426 0.85500306 0.83441371
0.59578407 -3.0012426 0.90500307 0.83441371
0.59578407 -3.0012426 0.95500302 0.83441371
0.59578407 -3.0012426 1.0050031 0.83441371
0.60694063 -3.0059566 0.55649012 0.8358891
0.60694063 -3.0059566 0.60649014 0.8358891
0.60694063 -3.0059566 0.65649015 0.8358891
0.60694063 -3.0059566 0.7064901 0.8358891
0.60694063 -3.0059566 0.75649011 0.8358891
0.60694063 -3.0059566 0.80649012 0.8358891
0.60694063 -3.0059566 0.85649014 0.8358891
0.60694063 -3.0059566 0.90649015 0.8358891
0.60694063 -3.0059566 0.9564901 0.8358891
0.60694063 -3.0059566 1.0064901 0.8358891
0.9560926 -3.0383797 0.55624759 0.87676525
0.9560926 -3.0383797 0.6062476 0.87676525
0.9560926 -3.0383797 0.65624762 0.87676525
0.9560926 -3.0383797 0.70624757 0.87676525
0.9560926 -3.0383797 0.75624758 0.87676525
0.9560926 -3.0383797 0.80624759 0.87676525
0.9560926 -3.0383797 0.8562476 0.87676525
0.9560926 -3.0383797 0.90624762 0.87676525
0.9560926 -3.0383797 0.95624757 0.87676525
0.9560926 -3.0383797 1.0062476 0.87676525
1.1198416 -3.0268457 0.52780592 0.84450239
1.1198416 -3.0268457 0.57780594 0.84450239
1.1198416 -3.0268457 0.62780595 0.84450239
1.1198416 -3.0268457 0.6778059 0.84450239
1.1198416 -3.0268457 0.72780591 0.84450239
1.1198416 -3.0268457 0.77780592 0.84450239
1.1198416 -3.0268457 0.82780594 0.84450239
1.1198416 -3.0268457 0.87780595 0.84450239
1.1198416 -3.0268457 0.9278059 0.84450239
1.1198416 -3.0268457 0.97780591 0.84450239
1.2902752 -3.0340073 0.5421626 0.78081465
1.2902752 -3.0340073 0.59216261 0.78081465
1.2902752 -3.0340073 0.64216262 0.78081465
1.2902752 -3.0340073 0.69216257 0.78081465
1.2902752 -3.0340073 0.74216259 0.78081465
1.2902752 -3.0340073 0.7921626 0.78081465
1.2902752 -3.0340073 0.84216261 0.78081465
1.2902752 -3.0340073 0.89216262 0.78081465
1.2902752 -3.0340073 0.94216257 0.78081465
1.2902752 -3.0340073 0.99216259 0.78081465
1.5141021 -3.0237243 0.56064129 0.80228418
1.5141021 -3.0237243 0.6106413 0.80228418
1.5141021 -3.0237243 0.66064131 0.80228418
1.5141021 -3.0237243 0.71064126 0.80228418
1.5141021 -3.0237243 0.76064128 0.80228418
1.5141021 -3.0237243 0.81064129 0.80228418
1.5141021 -3.0237243 0.8606413 0.80228418
1.5141021 -3.0237243 0.91064131 0.80228418
1.5141021 -3.0237243 0.96064126 0.80228418
1.5141021 -3.0237243 1.0106413 0.80228418
1.7769803 -3.0122225 0.58253574 0.83109027
1.7769803 -3.0122225 0.63253576 0.83109027
1.7769803 -3.0122225 0.68253577 0.83109027
1.7769803 -3.0122225 0.73253572 0.83109027
1.7769803 -3.0122225 0.78253573 0.83109027
1.7769803 -3.0122225 0.83253574 0.83109027
1.7769803 -3.0122225 0.88253576 0.83109027
1.7769803 -3.0122225 0.93253577 0.83109027
1.7769803 -3.0122225 0.98253572 0.83109027
1.7769803 -3.0122225 1.0325358 0.83109027
1.8069835 -3.0136609 0.59815091 0.89410341
1.8069835 -3.0136609 0.64815092 0.89410341
1.8069835 -3.0136609 0.69815093 0.89410341
1.8069835 -3.0136609 0.74815089 0.89410341
1.8069835 -3.0136609 0.7981509 0.89410341
1.8069835 -3.0136609 0.84815091 0.89410341
1.8069835 -3.0136609 0.89815092 0.89410341
1.8069835 -3.0136609 0.94815093 0.89410341
1.8069835 -3.0136609 0.99815089 0.89410341
1.8069835 -3.0136609 1.0481509 0.89410341
2.0877874 -3.0049891 0.50603294 0.7480166
2.0877874 -3.0049891 0.55603296 0.7480166
2.0877874 -3.0049891 0.60603297 0.7480166
2.0877874 -3.0049891 0.65603292 0.7480166
2.0877874 -3.0049891 0.70603293 0.7480166
2.0877874 -3.0049891 0.75603294 0.7480166
2.0877874 -3.0049891 0.80603296 0.7480166
2.0877874 -3.0049891 0.85603297 0.7480166
2.0877874 -3.0049891 0.90603292 0.7480166
2.0877874 -3.0049891 0.95603293 0.7480166
2.2911875 -3.011523 0.49882481 0.88493872
2.2911875 -3.011523 0.54882479 0.88493872
2.2911875 -3.011523 0.5988248 0.88493872
2.2911875 -3.011523 0.64882481 0.88493872
2.2911875 -3.011523 0.69882482 0.88493872
2.2911875 -3.011523 0.74882483 0.88493872
2.2911875 -3.011523 0.79882479 0.88493872
2.2911875 -3.011523 0.8488248 0.88493872
2.2911875 -3.011523 0.89882481 0.88493872
2.2911875 -3.011523 0.94882482 0.88493872
2.4572585 -3.1912777 0.51447892 0.85627568
2.4572585 -3.1912777 0.56447893 0.85627568
2.4572585 -3.1912777 0.61447895 0.85627568
2.4572585 -3.1912777 0.6644789 0.85627568
2.4572585 -3.1912777 0.71447891 0.85627568
2.4572585 -3.1912777 0.76447892 0.85627568
2.4572585 -3.1912777 0.81447893 0.85627568
2.4572585 -3.1912777 0.86447895 0.85627568
2.4572585 -3.1912777 0.9144789 0.85627568
2.4572585 -3.1912777 0.96447891 0.85627568
10.958937 -3.1912918 0.5071466 0.71852642
10.958937 -3.1912918 0.55714661 0.71852642
10.958937 -3.1912918 0.60714662 0.71852642
10.958937 -3.1912918 0.65714657 0.71852642
10.958937 -3.1912918 0.70714658 0.71852642
10.958937 -3.1912918 0.7571466 0.71852642
10.958937 -3.1912918 0.80714661 0.71852642
10.958937 -3.1912918 0.85714662 0.71852642
10.958937 -3.1912918 0.90714657 0.71852642
10.958937 -3.1912918 0.95714658 0.71852642
11.07379 -3.0640059 0.54217482 0.7469461
11.07379 -3.0640059 0.59217483 0.7469461
11.07379 -3.0640059 0.64217484 0.7469461
11.07379 -3.0640059 0.69217479 0.7469461
11.07379 -3.0640059 0.7421748 0.7469461
11.07379 -3.0640059 0.79217482 0.7469461
11.07379 -3.0640059 0.84217483 0.7469461
11.07379 -3.0640059 0.89217484 0.7469461
11.07379 -3.0640059 0.94217479 0.7469461
11.07379 -3.0640059 0.9921748 0.7469461
-5.0002937 -2.9219737 0.50822735 0.76724166
-5.0002937 -2.9219737 0.55822736 0.76724166
-5.0002937 -2.9219737 0.60822737 0.76724166
-5.0002937 -2.9219737 0.65822732 0.76724166
-5.0002937 -2.9219737 0.70822734 0.76724166
-5.0002937 -2.9219737 0.75822735 0.76724166
-5.0002937 -2.9219737 0.80822736 0.76724166
-5.0002937 -2.9219737 0.85822737 0.76724166
-5.0002937 -2.9219737 0.90822732 0.76724166
-5.0002937 -2.9219737 0.95822734 0.76724166
-4.9749703 -2.9001548 0.50673628 0.76534539
-4.9749703 -2.9001548 0.55673629 0.76534539
-4.9749703 -2.9001548 0.6067363 0.76534539
-4.9749703 -2.9001548 0.65673625 0.76534539
-4.9749703 -2.9001548 0.70673627 0.76534539
-4.9749703 -2.9001548 0.75673628 0.76534539
-4.9749703 -2.9001548 0.80673629 0.76534539
-4.9749703 -2.9001548 0.8567363 0.76534539
-4.9749703 -2.9001548 0.90673625 0.76534539
-4.9749703 -2.9001548 0.95673627 0.76534539
-0.064508513 -2.9832096 0.43213993 0.70052886
-0.064508513 -2.9832096 0.48213995 0.70052886
-0.064508513 -2.9832096 0.53213996 0.70052886
-0.064508513 -2.9832096 0.58213991 0.70052886
-0.064508513 -2.9832096 0.63213992 0.70052886
-0.064508513 -2.9832096 0.68213993 0.70052886
-0.064508513 -2.9832096 0.73213995 0.70052886
-0.064508513 -2.9832096 0.78213996 0.70052886
-0.064508513 -2.9832096 0.83213991 0.70052886
-0.064508513 -2.9832096 0.88213992 0.70052886
0.097667553 -2.9864852 0.44443211 0.71300918
0.097667553 -2.9864852 0.49443212 0.71300918
0.097667553 -2.9864852 0.5444321 0.71300918
0.097667553 -2.9864852 0.59443212 0.71300918
0.097667553 -2.9864852 0.64443213 0.71300918
0.097667553 -2.9864852 0.69443214 0.71300918
0.097667553 -2.9864852 0.74443209 0.71300918
0.097667553 -2.9864852 0.7944321 0.71300918
0.097667553 -2.9864852 0.84443212 0.71300918
0.097667553 -2.9864852 0.89443213 0.71300918
0.33203804 -2.9747553 0.47285032 0.7457695
0.33203804 -2.9747553 0.52285033 0.7457695
0.33203804 -2.9747553 0.57285035 0.7457695
0.33203804 -2.9747553 0.6228503 0.7457695
0.33203804 -2.9747553 0.67285031 0.7457695
0.33203804 -2.9747553 0.72285032 0.7457695
0.33203804 -2.9747553 0.77285033 0.7457695
0.33203804 -2.9747553 0.82285035 0.7457695
0.33203804 -2.9747553 0.8728503 0.7457695
0.33203804 -2.9747553 0.92285031 0.7457695
0.47026038 -2.9546025 0.49291977 0.7693491
0.47026038 -2.9546025 0.54291975 0.7693491
0.47026038 -2.9546025 0.59291977 0.7693491
0.47026038 -2.9546025 0.64291978 0.7693491
0.47026038 -2.9546025 0.69291979 0.7693491
0.47026038 -2.9546025 0.7429198 0.7693491
0.47026038 -2.9546025 0.79291975 0.7693491
0.47026038 -2.9546025 0.84291977 0.7693491
0.47026038 -2.9546025 0.89291978 0.7693491
0.47026038 -2.9546025 0.94291979 0.7693491
0.64884466 -2.963733 0.50831437 0.80244535
0.64884466 -2.963733 0.55831438 0.80244535
0.64884466 -2.963733 0.60831439 0.80244535
0.64884466 -2.963733 0.65831435 0.80244535
0.64884466 -2.963733 0.70831436 0.80244535
0.64884466 -2.963733 0.75831437 0.80244535
0.64884466 -2.963733 0.80831438 0.80244535
0.64884466 -2.963733 0.85831439 0.80244535
0.64884466 -2.963733 0.90831435 0.80244535
0.64884466 -2.963733 0.95831436 0.80244535
0.98450971 -2.9808278 0.43236312 0.75288081
0.98450971 -2.9808278 0.48236313 0.75288081
0.98450971 -2.9808278 0.53236312 0.75288081
0.98450971 -2.9808278 0.58236313 0.75288081
0.98450971 -2.9808278 0.63236314 0.75288081
0.98450971 -2.9808278 0.68236315 0.75288081
0.98450971 -2.9808278 0.7323631 0.75288081
0.98450971 -2.9808278 0.78236312 0.75288081
0.98450971 -2.9808278 0.83236313 0.75288081
0.98450971 -2.9808278 0.88236314 0.75288081
1.1289692 -2.9823775 0.43957826 0.75627595
1.1289692 -2.9823775 0.48957828 0.75627595
1.1289692 -2.9823775 0.53957826 0.75627595
1.1289692 -2.9823775 0.58957827 0.75627595
1.1289692 -2.9823775 0.63957828 0.75627595
1.1289692 -2.9823775 0.68957829 0.75627595
1.1289692 -2.9823775 0.73957825 0.75627595
1.1289692 -2.9823775 0.78957826 0.75627595
1.1289692 -2.9823775 0.83957827 0.75627595
1.1289692 -2.9823775 0.88957828 0.75627595
1.3066101 -2.9887042 0.4485693 0.76549482
1.3066101 -2.9887042 0.49856931 0.76549482
1.3066101 -2.9887042 0.54856932 0.76549482
1.3066101 -2.9887042 0.59856927 0.76549482
1.3066101 -2.9887042 0.64856929 0.76549482
1.3066101 -2.9887042 0.6985693 0.76549482
1.3066101 -2.9887042 0.74856931 0.76549482
1.3066101 -2.9887042 0.79856932 0.76549482
1.3066101 -2.9887042 0.84856927 0.76549482
1.3066101 -2.9887042 0.89856929 0.76549482
1.5318005 -2.9674335 0.4596225 0.70140207
1.5318005 -2.9674335 0.50962251 0.70140207
1.5318005 -2.9674335 0.55962253 0.70140207
1.5318005 -2.9674335 0.60962248 0.70140207
1.5318005 -2.9674335 0.65962249 0.70140207
1.5318005 -2.9674335 0.7096225 0.70140207
1.5318005 -2.9674335 0.75962251 0.70140207
1.5318005 -2.9674335 0.80962253 0.70140207
1.5318005 -2.9674335 0.85962248 0.70140207
1.5318005 -2.9674335 0.90962249 0.70140207
1.7696967 -2.9524293 0.47150323 0.72005773
1.7696967 -2.9524293 0.52150321 0.72005773
1.7696967 -2.9524293 0.57150322 0.72005773
1.7696967 -2.9524293 0.62150323 0.72005773
1.7696967 -2.9524293 0.67150325 0.72005773
1.7696967 -2.9524293 0.72150326 0.72005773
1.7696967 -2.9524293 0.77150321 0.72005773
1.7696967 -2.9524293 0.82150322 0.72005773
1.7696967 -2.9524293 0.87150323 0.72005773
1.7696967 -2.9524293 0.92150325 0.72005773
1.8033316 -2.9605803 0.47331697 0.71900082
1.8033316 -2.9605803 0.52331698 0.71900082
1.8033316 -2.9605803 0.57331699 0.71900082
1.8033316 -2.9605803 0.62331694 0.71900082
1.8033316 -2.9605803 0.67331696 0.71900082
1.8033316 -2.9605803 0.72331697 0.71900082
1.8033316 -2.9605803 0.77331698 0.71900082
1.8033316 -2.9605803 0.82331699 0.71900082
1.8033316 -2.9605803 0.87331694 0.71900082
1.8033316 -2.9605803 0.92331696 0.71900082
2.1178651 -2.9633961 0.41185489 0.7515406
2.1178651 -2.9633961 0.4618549 0.7515406
2.1178651 -2.9633961 0.51185489 0.7515406
2.1178651 -2.9633961 0.5618549 0.7515406
2.1178651 -2.9633961 0.61185491 0.7515406
2.1178651 -2.9633961 0.66185486 0.7515406
2.1178651 -2.9633961 0.71185488 0.7515406
2.1178651 -2.9633961 0.76185489 0.7515406
2.1178651 -2.9633961 0.8118549 0.7515406
2.1178651 -2.9633961 0.86185491 0.7515406
2.2469311 -2.9650886 0.41390234 0.77601755
2.2469311 -2.9650886 0.46390235 0.77601755
2.2469311 -2.9650886 0.51390237 0.77601755
2.2469311 -2.9650886 0.56390232 0.77601755
2.2469311 -2.9650886 0.61390233 0.77601755
2.2469311 -2.9650886 0.66390234 0.77601755
2.2469311 -2.9650886 0.71390235 0.77601755
2.2469311 -2.9650886 0.76390237 0.77601755
2.2469311 -2.9650886 0.81390232 0.77601755
2.2469311 -2.9650886 0.86390233 0.77601755
2.4268045 -2.9731119 0.41487542 0.75593638
2.4268045 -2.9731119 0.46487543 0.75593638
2.4268045 -2.9731119 0.51487541 0.75593638
2.4268045 -2.9731119 0.56487542 0.75593638
2.4268045 -2.9731119 0.61487544 0.75593638
2.4268045 -2.9731119 0.66487539 0.75593638
2.4268045 -2.9731119 0.7148754 0.75593638
2.4268045 -2.9731119 0.76487541 0.75593638
2.4268045 -2.9731119 0.81487542 0.75593638
2.4268045 -2.9731119 0.86487544 0.75593638
5.1677942 -2.9089942 0.53935957 0.86379147
5.1677942 -2.9089942 0.58935958 0.86379147
5.1677942 -2.9089942 0.63935959 0.86379147
5.1677942 -2.9089942 0.68935955 0.86379147
5.1677942 -2.9089942 0.73935956 0.86379147
5.1677942 -2.9089942 0.78935957 0.86379147
5.1677942 -2.9089942 0.83935958 0.86379147
5.1677942 -2.9089942 0.88935959 0.86379147
5.1677942 -2.9089942 0.93935955 0.86379147
5.1677942 -2.9089942 0.98935956 0.86379147
11.131398 -2.9724731 0.54248691 0.74866295
11.131398 -2.9724731 0.59248692 0.74866295
11.131398 -2.9724731 0.64248693 0.74866295
11.131398 -2.9724731 0.69248688 0.74866295
11.131398 -2.9724731 0.74248689 0.74866295
11.131398 -2.9724731 0.79248691 0.74866295
11.131398 -2.9724731 0.84248692 0.74866295
11.131398 -2.9724731 0.89248693 0.74866295
11.131398 -2.9724731 0.94248688 0.74866295
11.131398 -2.9724731 0.99248689 0.74866295
11.24421 -2.9090734 0.54370856 0.75014126
11.24421 -2.9090734 0.59370857 0.75014126
11.24421 -2.9090734 0.64370859 0.75014126
11.24421 -2.9090734 0.69370854 0.75014126
11.24421 -2.9090734 0.74370855 0.75014126
11.24421 -2.9090734 0.79370856 0.75014126
11.24421 -2.9090734 0.84370857 0.75014126
11.24421 -2.9090734 0.89370859 0.75014126
11.24421 -2.9090734 0.94370854 0.75014126
11.24421 -2.9090734 0.99370855 0.75014126
-5.0023742 -2.7835255 0.50712657 0.76714075
-5.0023742 -2.7835255 0.55712658 0.76714075
-5.0023742 -2.7835255 0.60712659 0.76714075
-5.0023742 -2.7835255 0.65712655 0.76714075
-5.0023742 -2.7835255 0.70712656 0.76714075
-5.0023742 -2.7835255 0.75712657 0.76714075
-5.0023742 -2.7835255 0.80712658 0.76714075
-5.0023742 -2.7835255 0.85712659 0.76714075
-5.0023742 -2.7835255 0.90712655 0.76714075
-5.0023742 -2.7835255 0.95712656 0.76714075
-4.9771109 -2.7115951 0.50530946 0.76302499
-4.9771109 -2.7115951 0.55530947 0.76302499
-4.9771109 -2.7115951 0.60530949 0.76302499
-4.9771109 -2.7115951 0.65530944 0.76302499
-4.9771109 -2.7115951 0.70530945 0.76302499
-4.9771109 -2.7115951 0.75530946 0.76302499
-4.9771109 -2.7115951 0.80530947 0.76302499
-4.9771109 -2.7115951 0.85530949 0.76302499
-4.9771109 -2.7115951 0.90530944 0.76302499
-4.9771109 -2.7115951 0.95530945 0.76302499
5.0401821 -2.7276602 0.53325057 0.83804321
5.0401821 -2.7276602 0.58325058 0.83804321
5.0401821 -2.7276602 0.63325059 0.83804321
5.0401821 -2.7276602 0.68325055 0.83804321
5.0401821 -2.7276602 0.73325056 0.83804321
5.0401821 -2.7276602 0.78325057 0.83804321
5.0401821 -2.7276602 0.83325058 0.83804321
5.0401821 -2.7276602 0.88325059 0.83804321
5.0401821 -2.7276602 0.93325055 0.83804321
5.0401821 -2.7276602 0.98325056 0.83804321
11.356964 -2.7519293 0.54077208 0.75689882
11.356964 -2.7519293 0.59077209 0.75689882
11.356964 -2.7519293 0.6407721 0.75689882
11.356964 -2.7519293 0.69077206 0.75689882
11.356964 -2.7519293 0.74077207 0.75689882
11.356964 -2.7519293 0.79077208 0.75689882
11.356964 -2.7519293 0.84077209 0.75689882
11.356964 -2.7519293 0.8907721 0.75689882
11.356964 -2.7519293 0.94077206 0.75689882
11.356964 -2.7519293 0.99077207 0.75689882
-5.0029655 -2.577877 0.50584257 0.76330101
-5.0029655 -2.577877 0.55584258 0.76330101
-5.0029655 -2.577877 0.60584259 0.76330101
-5.0029655 -2.577877 0.65584254 0.76330101
-5.0029655 -2.577877 0.70584255 0.76330101
-5.0029655 -2.577877 0.75584257 0.76330101
-5.0029655 -2.577877 0.80584258 0.76330101
-5.0029655 -2.577877 0.85584259 0.76330101
-5.0029655 -2.577877 0.90584254 0.76330101
-5.0029655 -2.577877 0.95584255 0.76330101
-4.9808006 -2.4915602 0.504327 0.76158309
-4.9808006 -2.4915602 0.55432701 0.76158309
-4.9808006 -2.4915602 0.60432702 0.76158309
-4.9808006 -2.4915602 0.65432698 0.76158309
-4.9808006 -2.4915602 0.70432699 0.76158309
-4.9808006 -2.4915602 0.754327 0.76158309
-4.9808006 -2.4915602 0.80432701 0.76158309
-4.9808006 -2.4915602 0.85432702 0.76158309
-4.9808006 -2.4915602 0.90432698 0.76158309
-4.9808006 -2.4915602 0.95432699 0.76158309
4.8866434 -2.4637327 0.41572866 0.71382213
4.8866434 -2.4637327 0.46572867 0.71382213
4.8866434 -2.4637327 0.51572865 0.71382213
4.8866434 -2.4637327 0.56572866 0.71382213
4.8866434 -2.4637327 0.61572868 0.71382213
4.8866434 -2.4637327 0.66572869 0.71382213
4.8866434 -2.4637327 0.71572864 0.71382213
4.8866434 -2.4637327 0.76572865 0.71382213
4.8866434 -2.4637327 0.81572866 0.71382213
4.8866434 -2.4637327 0.86572868 0.71382213
-5.0010872 -2.2395582 0.50485218 0.76181602
-5.0010872 -2.2395582 0.55485219 0.76181602
-5.0010872 -2.2395582 0.6048522 0.76181602
-5.0010872 -2.2395582 0.65485215 0.76181602
-5.0010872 -2.2395582 0.70485216 0.76181602
-5.0010872 -2.2395582 0.75485218 0.76181602
-5.0010872 -2.2395582 0.80485219 0.76181602
-5.0010872 -2.2395582 0.8548522 0.76181602
-5.0010872 -2.2395582 0.90485215 0.76181602
-5.0010872 -2.2395582 0.95485216 0.76181602
-4.9815021 -2.2898397 0.50387931 0.76078457
-4.9815021 -2.2898397 0.55387932 0.76078457
-4.9815021 -2.2898397 0.60387933 0.76078457
-4.9815021 -2.2898397 0.65387928 0.76078457
-4.9815021 -2.2898397 0.7038793 0.76078457
-4.9815021 -2.2898397 0.75387931 0.76078457
-4.9815021 -2.2898397 0.80387932 0.76078457
-4.9815021 -2.2898397 0.85387933 0.76078457
-4.9815021 -2.2898397 0.90387928 0.76078457
-4.9815021 -2.2898397 0.9538793 0.76078457
4.7644429 -2.2965145 0.41352388 0.71004087
4.7644429 -2.2965145 0.46352389 0.71004087
4.7644429 -2.2965145 0.51352388 0.71004087
4.7644429 -2.2965145 0.56352389 0.71004087
4.7644429 -2.2965145 0.6135239 0.71004087
4.7644429 -2.2965145 0.66352391 0.71004087
4.7644429 -2.2965145 0.71352386 0.71004087
4.7644429 -2.2965145 0.76352388 0.71004087
4.7644429 -2.2965145 0.81352389 0.71004087
4.7644429 -2.2965145 0.8635239 0.71004087
-5.0052071 -2.1715102 0.50508201 0.76215369
-5.0052071 -2.1715102 0.55508202 0.76215369
-5.0052071 -2.1715102 0.60508204 0.76215369
-5.0052071 -2.1715102 0.65508199 0.76215369
-5.0052071 -2.1715102 0.705082 0.76215369
-5.0052071 -2.1715102 0.75508201 0.76215369
-5.0052071 -2.1715102 0.80508202 0.76215369
-5.0052071 -2.1715102 0.85508204 0.76215369
-5.0052071 -2.1715102 0.90508199 0.76215369
-5.0052071 -2.1715102 0.955082 0.76215369
-4.9803162 -2.0883739 0.50390387 0.76100177
-4.9803162 -2.0883739 0.55390388 0.76100177
-4.9803162 -2.0883739 0.60390389 0.76100177
-4.9803162 -2.0883739 0.65390384 0.76100177
-4.9803162 -2.0883739 0.70390385 0.76100177
-4.9803162 -2.0883739 0.75390387 0.76100177
-4.9803162 -2.0883739 0.80390388 0.76100177
-4.9803162 -2.0883739 0.85390389 0.76100177
-4.9803162 -2.0883739 0.90390384 0.76100177
-4.9803162 -2.0883739 0.95390385 0.76100177
4.588026 -2.0309885 0.41048491 0.70272648
4.588026 -2.0309885 0.46048492 0.70272648
4.588026 -2.0309885 0.51048493 0.70272648
4.588026 -2.0309885 0.56048489 0.70272648
4.588026 -2.0309885 0.6104849 0.70272648
4.588026 -2.0309885 0.66048491 0.70272648
4.588026 -2.0309885 0.71048492 0.70272648
4.588026 -2.0309885 0.76048493 0.70272648
4.588026 -2.0309885 0.81048489 0.70272648
4.588026 -2.0309885 0.8604849 0.70272648
4.6506548 -2.1353254 0.41153541 0.70678777
4.6506548 -2.1353254 0.46153542 0.70678777
4.6506548 -2.1353254 0.51153541 0.70678777
4.6506548 -2.1353254 0.56153542 0.70678777
4.6506548 -2.1353254 0.61153543 0.70678777
4.6506548 -2.1353254 0.66153538 0.70678777
4.6506548 -2.1353254 0.71153539 0.70678777
4.6506548 -2.1353254 0.76153541 0.70678777
4.6506548 -2.1353254 0.81153542 0.70678777
4.6506548 -2.1353254 0.86153543 0.70678777
-5.0008254 -1.9014987 0.50554258 0.87641698
-5.0008254 -1.9014987 0.55554259 0.87641698
-5.0008254 -1.9014987 0.6055426 0.87641698
-5.0008254 -1.9014987 0.65554255 0.87641698
-5.0008254 -1.9014987 0.70554256 0.87641698
-5.0008254 -1.9014987 0.75554258 0.87641698
-5.0008254 -1.9014987 0.80554259 0.87641698
-5.0008254 -1.9014987 0.8555426 0.87641698
-5.0008254 -1.9014987 0.90554255 0.87641698
-5.0008254 -1.9014987 0.95554256 0.87641698
-4.9781303 -1.8864514 0.50444812 0.76186424
-4.9781303 -1.8864514 0.55444813 0.76186424
-4.9781303 -1.8864514 0.60444814 0.76186424
-4.9781303 -1.8864514 0.65444809 0.76186424
-4.9781303 -1.8864514 0.7044481 0.76186424
-4.9781303 -1.8864514 0.75444812 0.76186424
-4.9781303 -1.8864514 0.80444813 0.76186424
-4.9781303 -1.8864514 0.85444814 0.76186424
-4.9781303 -1.8864514 0.90444809 0.76186424
-4.9781303 -1.8864514 0.9544481 0.76186424
4.3998003 -1.8147781 0.56539214 0.92098981
4.3998003 -1.8147781 0.61539215 0.92098981
4.3998003 -1.8147781 0.66539216 0.92098981
4.3998003 -1.8147781 0.71539211 0.92098981
4.3998003 -1.8147781 0.76539212 0.92098981
4.3998003 -1.8147781 0.81539214 0.92098981
4.3998003 -1.8147781 0.86539215 0.92098981
4.3998003 -1.8147781 0.91539216 0.92098981
4.3998003 -1.8147781 0.96539211 0.92098981
4.3998003 -1.8147781 1.0153922 0.92098981
4.5138083 -1.9293697 0.4092637 0.70150524
4.5138083 -1.9293697 0.45926371 0.70150524
4.5138083 -1.9293697 0.50926369 0.70150524
4.5138083 -1.9293697 0.55926371 0.70150524
4.5138083 -1.9293697 0.60926372 0.70150524
4.5138083 -1.9293697 0.65926373 0.70150524
4.5138083 -1.9293697 0.70926368 0.70150524
4.5138083 -1.9293697 0.75926369 0.70150524
4.5138083 -1.9293697 0.80926371 0.70150524
4.5138083 -1.9293697 0.85926372 0.70150524
-5.0021381 -1.7647033 0.50634682 0.76373553
-5.0021381 -1.7647033 0.55634683 0.76373553
-5.0021381 -1.7647033 0.60634685 0.76373553
-5.0021381 -1.7647033 0.6563468 0.76373553
-5.0021381 -1.7647033 0.70634681 0.76373553
