# .PCD v0.7 - Point Cloud Data file format
VERSION 0.7
FIELDS x y z intensity
SIZE 4 4 4 4
TYPE F F F F
COUNT 1 1 1 1
WIDTH 1123
HEIGHT 1
VIEWPOINT 0 0 0 1 0 0 0
POINTS 1123
DATA ascii
1.3917592 1.947666 0.44444785 0.42118782
1.4229403 1.9522369 0.44217038 0.39162862
1.5171417 1.9527571 0.49302751 0.22938919
8.9430809 1.9710087 0.40062267 0.39935055
-3.0277681 2.0210762 0.40122491 0.30012521
1.389962 2.0483704 0.44607002 0.42221636
1.4608729 2.0225143 0.48744792 0.26816142
1.5538626 2.0569642 0.47366777 0.21438365
-3.0388558 2.1150675 0.40498027 0.30843365
1.3931814 2.1446409 0.44234043 0.43901646
1.4537849 2.1799903 0.44716343 0.42522645
1.5570253 2.1208038 0.48546332 0.21831265
1.6280829 2.1435652 0.47126523 0.25234845
8.9486618 2.1792271 0.40276992 0.40095448
1.3927836 2.2089005 0.47544503 0.46475962
1.4691112 2.2142448 0.44301009 0.43591332
1.5689608 2.2622294 0.48160768 0.35233989
1.6194971 2.2229934 0.4859201 0.2377764
8.9340286 2.2623172 0.40112287 0.37835854
1.4897842 2.3023407 0.44757381 0.44271991
1.5766706 2.3213143 0.45686582 0.29855105
1.604089 2.3137136 0.45545092 0.2816647
8.9294796 2.3503017 0.4014138 0.39223301
8.932476 2.450211 0.40124345 0.39418679
-3.0626113 2.5761495 0.40022606 0.28203952
5.6997995 2.5700254 0.4283981 0.28533715
5.7250571 2.5731435 0.42896503 0.28587878
8.9352264 2.5352583 0.402347 0.39916891
-3.0550408 2.6122069 0.40163043 0.28086087
5.5953331 2.6742105 0.4384442 0.29495332
5.6487765 2.6233683 0.43365878 0.29016793
5.7970886 2.649601 0.43561769 0.29253143
5.8485785 2.6882167 0.43903548 0.29594919
8.921731 2.6559904 0.40108854 0.35631853
-3.0652838 2.7660699 0.40118736 0.28267843
5.5546722 2.7043695 0.40331087 0.27039596
5.6418066 2.745883 0.45597351 0.45087808
5.7106533 2.7923346 0.47300923 0.44199437
5.8492937 2.7022448 0.44047159 0.29704359
5.90623 2.7506592 0.44472963 0.30171636
7.2803054 2.7973199 0.47917521 0.34417328
7.3473864 2.7950668 0.48201901 0.34469014
7.407918 2.7815776 0.48346856 0.34613976
7.5273352 2.7824006 0.45622045 0.31869876
8.9494448 2.7682776 0.40136704 0.39721733
-3.0618854 2.8805969 0.40224621 0.30960044
5.6791611 2.8082516 0.43107596 0.40283012
5.7574377 2.8811269 0.43844885 0.41449451
5.8153982 2.8974662 0.4611854 0.40427327
5.9567704 2.8058195 0.44976917 0.30675593
6.0089388 2.8685565 0.46973178 0.28359053
7.1907368 2.8819318 0.40646553 0.27940845
7.2716045 2.8478189 0.48317277 0.34690058
7.3499546 2.8029745 0.48260933 0.34533703
7.4924469 2.8108623 0.48936605 0.35203686
7.5747271 2.8290606 0.49438274 0.36269608
7.6753368 2.8619127 0.4048 0.28496033
7.7032218 2.8855262 0.40173441 0.32438076
8.9343529 2.8189664 0.40073782 0.39934683
-3.0554779 2.9189091 0.40089956 0.27992761
5.7945523 2.9481173 0.45136639 0.42191672
5.8130383 2.9620559 0.43706688 0.39936766
5.9608159 2.9494107 0.44534278 0.39069751
6.0030127 2.9391859 0.4667145 0.23479918
7.1897955 2.9279902 0.42169154 0.2714687
7.2425632 2.9978514 0.49394166 0.25054795
7.6783748 2.9405518 0.41802084 0.30799663
7.7078228 2.9238234 0.41411781 0.32745236
8.9377785 2.923842 0.40136778 0.39841169
5.7806854 3.057066 0.43490317 0.40738437
5.8194861 3.037236 0.4489387 0.41559491
5.9585519 3.0497303 0.44879737 0.39581069
6.0081739 3.0503182 0.46914533 0.23975231
7.1925125 3.0418909 0.40251207 0.33174282
7.2453628 3.0044656 0.4946813 0.25199872
7.6491556 3.0752249 0.40757507 0.33989328
8.9356813 3.0647914 0.40177846 0.39906257
-3.0704978 3.1030066 0.40013972 0.2797842
5.7839527 3.1561682 0.43072712 0.39881223
5.8134575 3.1397061 0.45977622 0.42396224
5.9677896 3.1427226 0.45131928 0.39881009
6.008759 3.144536 0.45116934 0.22921096
7.254796 3.1163387 0.49253446 0.40866888
7.3380861 3.1805077 0.4178136 0.26917425
7.5621486 3.1702673 0.40839824 0.3510358
8.94594 3.1859136 0.40395623 0.40023011
-3.0546412 3.2078655 0.40021461 0.32936358
5.7907519 3.2496464 0.43764663 0.40806213
5.8117337 3.2481244 0.44533354 0.40922758
5.9645019 3.2481453 0.44419399 0.3872031
6.0114865 3.2476718 0.46007219 0.30634895
7.3593502 3.2132163 0.40085894 0.28027987
7.540482 3.2052124 0.41794676 0.38188639
8.9506931 3.2159171 0.40033653 0.39052713
5.7894573 3.3504913 0.44804946 0.41259858
5.8071566 3.3505912 0.44957906 0.41410646
5.9588127 3.3553078 0.44405079 0.37201807
6.0067921 3.3382778 0.47252482 0.21452531
8.9510279 3.3446827 0.40106964 0.38075846
5.7920718 3.4396977 0.46218878 0.43607172
5.822916 3.4577663 0.44736919 0.40451574
5.9531283 3.4641571 0.44270805 0.35385707
6.0145965 3.4520128 0.45230755 0.22995679
8.9485655 3.4454622 0.40014315 0.39797068
-3.0715036 3.5976243 0.40219712 0.28314665
5.793004 3.5357826 0.45720828 0.43002981
5.8263774 3.568985 0.4400768 0.39525518
5.9566245 3.5628893 0.45688143 0.36509633
6.0138206 3.5485563 0.44926056 0.22270943
8.9401598 3.5296731 0.40068308 0.38230491
5.7909021 3.6409771 0.45287615 0.42376277
5.8131385 3.643714 0.45268378 0.41759792
5.9646993 3.6469498 0.44596964 0.36556312
6.008182 3.6521275 0.45975828 0.23044179
8.8618975 3.6585839 0.40115151 0.30296242
8.9432602 3.6145048 0.40095165 0.39684269
-3.0733688 3.747108 0.40188786 0.286192
5.7907534 3.7519317 0.44913957 0.40234232
5.8098426 3.7349329 0.45935068 0.40661955
5.9705715 3.7368097 0.45466545 0.36592048
6.0102754 3.7515357 0.46925613 0.23546965
8.862155 3.7496758 0.40578389 0.30264017
8.9450483 3.7474794 0.40049827 0.39777416
-3.0537739 3.8852241 0.40090108 0.28293025
5.7910237 3.853909 0.45547804 0.40591753
5.8200512 3.8437645 0.44809258 0.37180328
5.969861 3.8431973 0.44234753 0.35079792
6.0084195 3.8687012 0.46419072 0.2337171
8.8557339 3.8384347 0.41011208 0.30696836
8.9560719 3.861727 0.40027398 0.35669908
-3.0456989 3.9616303 0.40116969 0.28266966
5.7920513 3.9537647 0.46276042 0.35233799
5.8110676 3.9267528 0.44389907 0.31354496
5.958426 3.9468839 0.4528521 0.29292309
6.0111246 3.9550552 0.45478293 0.23145306
8.9228458 3.9372721 0.40113765 0.34771293
-3.0617661 4.0409765 0.40240365 0.28488606
5.7920785 4.0521851 0.45116201 0.33783951
5.8116217 4.0299263 0.45384252 0.30805793
5.9632044 4.0259447 0.45670968 0.30304593
6.0100594 4.0490322 0.45613286 0.23957504
5.7903919 4.1473732 0.45425299 0.3180671
5.8886003 4.1318259 0.4605301 0.28606033
5.9719267 4.1546483 0.45485502 0.25366932
6.0155468 4.1376047 0.44507694 0.22040386
8.9474754 4.1804838 0.40091622 0.36394602
5.7913756 4.2687125 0.45301494 0.3111653
5.8875799 4.2384319 0.46564364 0.30458903
5.9716673 4.2441444 0.4446891 0.28918397
6.0100913 4.2502213 0.44411176 0.24900863
5.7949619 4.3684182 0.45785946 0.31682569
5.8821297 4.3712139 0.48025209 0.33802968
5.9790392 4.3184795 0.44401759 0.31854716
6.0132737 4.3388734 0.45324603 0.30110565
8.9459229 4.3635969 0.40340096 0.34978497
-2.1605735 4.4990454 0.40277013 0.35681146
-1.8233898 4.4855695 0.4020471 0.33620322
-1.3148148 4.4993529 0.4004795 0.32914937
-1.1016338 4.4983864 0.40051848 0.38452142
-0.61011815 4.4776278 0.40221569 0.35754758
-0.54689401 4.4993639 0.40031546 0.39120412
-0.39034516 4.4765358 0.40052491 0.36936045
-0.16533649 4.4990544 0.40112442 0.34968939
0.0093675628 4.4820366 0.40032101 0.36023414
0.11097497 4.4827757 0.40112254 0.30167162
0.28033638 4.4857659 0.40198517 0.3946169
0.36884141 4.4694281 0.40046906 0.37121814
0.44843161 4.4959025 0.40251791 0.34256044
0.71208203 4.483346 0.40208477 0.37577936
0.8520323 4.4749556 0.40178934 0.39786306
0.9270432 4.4946814 0.40242416 0.36133298
1.0144967 4.4679289 0.40200469 0.39918277
1.1587136 4.4925866 0.40063247 0.29803669
1.2591746 4.4951501 0.40301204 0.359317
1.3365842 4.499423 0.40047333 0.35879901
1.4159358 4.4649186 0.40066427 0.3766138
1.5913368 4.4879799 0.40136349 0.35942239
1.695789 4.4841957 0.40027291 0.35910529
1.7987458 4.4820042 0.40020066 0.34406066
1.8187451 4.4942789 0.40139413 0.36461401
1.9441438 4.4875393 0.40070477 0.34866348
2.052331 4.4958215 0.40101972 0.36417234
2.1192319 4.4995365 0.40125781 0.36460626
2.3030744 4.4819145 0.40064052 0.35132706
2.5506091 4.4918165 0.40257972 0.36950427
2.6404674 4.4558272 0.40134966 0.35005277
2.7660296 4.4878092 0.40149951 0.36386937
2.8845351 4.4896069 0.40021271 0.38257012
2.9888844 4.4733644 0.40052158 0.29490066
3.0777278 4.4904165 0.40205544 0.36366305
3.1384957 4.4738579 0.40092272 0.37414116
3.2047663 4.4974265 0.40044972 0.34906584
3.3081362 4.4972653 0.40078375 0.38718879
3.4745631 4.4677925 0.40165913 0.35406294
3.5068178 4.4777765 0.40062767 0.35289234
3.6046128 4.4589386 0.40062669 0.36314952
3.7300906 4.4831185 0.40066928 0.35726026
3.822258 4.4832973 0.40199301 0.36472833
3.9518962 4.4872451 0.40151435 0.36362505
4.0121222 4.4660978 0.40100774 0.37902158
4.1471138 4.4748082 0.40208429 0.35510129
4.4136333 4.4634366 0.40002403 0.35497159
4.5863171 4.4762163 0.40126586 0.37245563
4.6268563 4.4817524 0.40161443 0.39816099
4.779911 4.4655037 0.40169376 0.30415124
4.8936825 4.4683475 0.40164214 0.2893436
4.9932804 4.4879842 0.40076149 0.33841676
5.0295858 4.4914613 0.40188605 0.36078718
5.1185293 4.4650698 0.40146208 0.35357904
5.3669076 4.4831991 0.40086454 0.34105712
5.5472469 4.4825091 0.40266031 0.2905179
5.6310735 4.454381 0.40109664 0.25757784
5.7937994 4.4296803 0.46882862 0.32661843
5.8090563 4.4111428 0.49092174 0.34600624
5.9679718 4.4730082 0.4661743 0.34265465
6.0113697 4.4263053 0.43409577 0.28167453
6.4557686 4.4796152 0.4010092 0.31777841
6.5246868 4.4836845 0.4042767 0.33369341
6.6740184 4.45895 0.40046519 0.28558046
6.7487226 4.4657488 0.40123504 0.2862637
6.8435469 4.4694066 0.4016172 0.34392077
7.0587063 4.4907808 0.40147722 0.29544538
7.1641474 4.4898071 0.40044338 0.32693189
7.3032031 4.4971385 0.40072739 0.3330999
7.4585867 4.4706759 0.40045881 0.28784031
7.5225611 4.4555712 0.4008643 0.29269227
7.787694 4.4665585 0.40090394 0.28722972
8.3756943 4.4914927 0.4007895 0.33269283
8.5047588 4.4892797 0.40027004 0.33444899
8.7577753 4.4902992 0.40130097 0.33580381
8.8005371 4.4804888 0.40164736 0.33449215
-3.0391576 4.5135107 0.40129393 0.28250578
-2.8303046 4.5174031 0.40246809 0.28615415
-2.4386115 4.5235291 0.40021214 0.33992618
-2.215518 4.5255351 0.40027136 0.34770966
-2.0804138 4.5052853 0.40117246 0.35459152
-1.8471899 4.5175977 0.40200609 0.34604231
-1.5257576 4.5078845 0.40187544 0.35829562
-1.2664658 4.5206356 0.40265608 0.36454862
-1.1742625 4.5217447 0.40084809 0.32976684
-1.0790447 4.5310383 0.40148175 0.36570644
-0.77427495 4.5019655 0.40029293 0.38827994
-0.65528733 4.5254154 0.40133178 0.31344387
-0.5840221 4.5138168 0.40155429 0.34527168
-0.40643212 4.5177727 0.40197462 0.35064346
-0.30500063 4.5102339 0.40334606 0.30205178
-0.24582174 4.5106497 0.40274718 0.39097577
-0.1788906 4.5077634 0.40341955 0.39266425
-0.046111226 4.5333862 0.402565 0.39539886
0.2675474 4.5135937 0.4009921 0.36907113
0.36100686 4.5232215 0.4008773 0.38268575
0.44164634 4.5249906 0.40080959 0.37146705
0.58350039 4.5194335 0.40021551 0.38424572
0.7414968 4.5174527 0.40170053 0.38390246
1.050794 4.5238094 0.40129322 0.36861202
1.2724108 4.5382977 0.40078476 0.281021
1.340796 4.5119491 0.40056655 0.28097406
1.4306552 4.5253372 0.40084079 0.35194656
1.5105863 4.5223188 0.40472129 0.36940193
1.6454139 4.5095119 0.40087524 0.36288804
1.7592754 4.5078354 0.40181935 0.36167648
1.8505973 4.5247993 0.40107244 0.35869282
1.9687637 4.5005817 0.4000425 0.36130416
2.0318825 4.5113091 0.40100253 0.35095435
2.1105547 4.5155559 0.40124047 0.35583258
2.2614875 4.5089293 0.40049821 0.35384896
2.3364558 4.5018091 0.40312904 0.3528915
2.5499053 4.5078373 0.40508223 0.37200677
2.6621866 4.5130615 0.40131968 0.35856712
2.7355261 4.5219855 0.40033871 0.3556245
2.8316112 4.5105705 0.40114591 0.3635816
2.9416885 4.507309 0.40169027 0.38062394
3.1441417 4.5136199 0.4006761 0.37252671
3.2616377 4.5075126 0.40143058 0.38161319
3.4567728 4.5180922 0.40115905 0.30513179
3.6857095 4.5018735 0.40121469 0.31679797
3.7471735 4.5054264 0.40285355 0.36047584
3.8255081 4.5096073 0.40017375 0.37051296
3.9888077 4.5018711 0.40446514 0.36292189
4.0208797 4.5271482 0.40239328 0.30707619
4.1599431 4.5039268 0.40223858 0.3994213
4.2435503 4.5153027 0.40127569 0.3927446
4.386272 4.5142298 0.40126061 0.30454981
4.710535 4.5078039 0.40441585 0.3980757
4.8240829 4.5056362 0.4006305 0.39290476
5.1775827 4.5154428 0.4037599 0.36426139
5.2332435 4.5062013 0.40302598 0.39390251
5.6848526 4.5135717 0.40005964 0.31151277
6.6744099 4.5115867 0.40204328 0.2781443
8.4534531 4.5149488 0.40453911 0.32797861
8.6702042 4.5017214 0.40007451 0.33457735
-0.11488663 -3.5158811 0.54417753 0.43667543
0.072823703 -3.5018427 0.55216289 0.41525948
-0.12287293 -3.4562507 0.5382998 0.41042238
-0.088241383 -3.4459229 0.5386225 0.40030593
0.063906148 -3.428303 0.55416036 0.40726322
-0.11552808 -3.365027 0.54379618 0.41507423
-0.082658909 -3.340167 0.55503011 0.42602435
0.066718072 -3.3365386 0.53993982 0.38651124
-0.12138954 -3.2412958 0.54898775 0.44530219
-0.074427605 -3.2660241 0.53628314 0.41155803
0.060457945 -3.2296631 0.54531872 0.39080963
-0.11274899 -3.110198 0.55167365 0.40733841
-0.080446854 -3.1767941 0.55159831 0.41407782
0.065236822 -3.1344161 0.55059528 0.39390036
-0.12501299 -3.036912 0.54046553 0.47377679
-0.092699617 -3.0462704 0.55967927 0.42243737
0.065225698 -3.019717 0.54070389 0.39076963
-0.10453494 -2.9292586 0.50649261 0.40190858
-0.099023059 -2.930748 0.57200527 0.47332817
0.061103236 -2.9441659 0.55524576 0.3992976
0.10272169 -2.9456601 0.55363309 0.24736378
-0.11465771 -2.8821583 0.5498004 0.42093855
-0.093521908 -2.8534694 0.55072904 0.44477797
0.061781079 -2.8590035 0.54422414 0.3888486
-0.11204904 -2.7220562 0.5522415 0.46990067
-0.090691626 -2.764405 0.54457492 0.51332432
0.065802239 -2.7552357 0.55258673 0.40559396
0.11821508 -2.7503152 0.54610008 0.24217385
-0.11289088 -2.6673136 0.52143681 0.51454067
-0.093015045 -2.6554084 0.54096854 0.51238936
0.05932194 -2.6529882 0.54211164 0.39185938
-0.105531 -2.5665104 0.53496927 0.49627399
-0.093155921 -2.542592 0.52045751 0.48677623
0.073258474 -2.5644312 0.55670893 0.35415813
0.10771704 -2.5886116 0.54088902 0.2369628
-0.11192216 -2.4373651 0.55700135 0.52807337
-0.097232074 -2.4486632 0.55713081 0.53133857
0.075523525 -2.4226036 0.55271399 0.35174486
0.10801697 -2.4218488 0.53518373 0.2328361
-0.10746663 -2.3446264 0.54071271 0.51558423
-0.098472655 -2.3491969 0.51373261 0.4953056
0.072613969 -2.3720698 0.55707991 0.34414428
-0.11120497 -2.2352161 0.5556891 0.530689
-0.096779108 -2.2816291 0.50055325 0.49643177
0.077421419 -2.2252564 0.54912806 0.34988201
0.1215446 -2.2631412 0.54663801 0.24475165
-1.5122433 -2.1703639 0.57370424 0.45259058
-1.4196386 -2.1707702 0.52471441 0.48257592
-1.3975627 -2.1379461 0.5028699 0.2955808
-0.11335517 -2.143038 0.54901302 0.52499366
-0.09847004 -2.1104999 0.53289896 0.50309449
0.083963506 -2.1796403 0.54400456 0.34483427
0.1139636 -2.1002297 0.52428544 0.22487465
-1.4241488 -2.0686357 0.57786453 0.42481104
-1.3969874 -2.018714 0.53622907 0.38656026
-0.11314183 -2.0468197 0.5310663 0.50358772
0.083693482 -2.0419917 0.54391056 0.45670116
0.12611103 -2.08339 0.55683142 0.48172361
-1.7034078 -1.9236135 0.56786549 0.49792838
-1.6412516 -1.9012682 0.55762374 0.40199405
-1.4034109 -1.9444063 0.57525563 0.43607587
-1.3663838 -1.9118992 0.54261899 0.40502495
-0.11437251 -1.9349715 0.51419008 0.47254422
0.060891476 -1.9551249 0.52588278 0.41683373
0.11192322 -1.9090159 0.52976835 0.39090064
-1.7316563 -1.8970211 0.55529499 0.41751167
-1.6232148 -1.8440208 0.5232178 0.42825353
-1.5423605 -1.8291903 0.57613266 0.43650737
-1.4620359 -1.8358383 0.5169543 0.41645712
-1.3710442 -1.8668072 0.51038992 0.39564162
-0.10298142 -1.8257433 0.55836916 0.4368881
-0.07594128 -1.8042403 0.54626465 0.41001356
0.089681119 -1.889894 0.55179667 0.47664785
0.13296267 -1.8501561 0.53694487 0.48816365
0.20885397 -1.8175077 0.53455752 0.40171695
-1.5561428 -1.7879465 0.51227486 0.37105501
-1.4955603 -1.7904727 0.51442295 0.37421197
-0.031033698 -1.7548246 0.56437433 0.42391765
0.012392516 -1.7116776 0.53490186 0.39705586
0.19301578 -1.7896824 0.52796233 0.51122791
0.26425403 -1.737866 0.52270579 0.47582433
0.33429861 -1.7086167 0.56910193 0.54684222
0.057758801 -1.6812344 0.56716216 0.44827509
0.11080086 -1.6232374 0.55301839 0.43464494
0.26160276 -1.6490958 0.56337523 0.44678497
0.30919325 -1.6823571 0.53528142 0.49391741
0.15359324 -1.5797817 0.56345248 0.45258725
0.21543795 -1.5886714 0.54616565 0.41950607
4.2922478 -1.3340855 0.50447088 0.49623734
4.243093 -1.2672352 0.50055915 0.46937418
4.3705492 -1.2716658 0.50218022 0.43798399
4.5169258 -1.2040195 0.58490622 0.35716146
4.3919353 -1.1137013 0.55467045 0.30782992
4.4299335 -1.1180313 0.54703379 0.41414183
4.3899708 -1.0658746 0.55043793 0.29166257
4.4323263 -1.0486934 0.55500817 0.42211628
4.5061135 -1.0978401 0.57817501 0.32507765
4.3996143 -0.9920693 0.56764758 0.43219203
4.4230599 -0.94645911 0.55746579 0.4223077
4.5080223 -0.97997832 0.56985199 0.31710154
4.3919497 -0.80542386 0.54870296 0.40867007
4.4233804 -0.8458513 0.55233121 0.41717315
4.510869 -0.86634851 0.56182492 0.29371148
4.3893623 -0.75315571 0.57256436 0.29334825
4.4193573 -0.75226289 0.56738812 0.42917642
-3.0594702 -0.6108225 0.55699605 0.48801965
-2.9114518 -0.60871196 0.56805938 0.45118573
-2.8313673 -0.60906363 0.55870521 0.47695154
-2.7516224 -0.60609788 0.54823983 0.47403982
-2.6462193 -0.60346282 0.53459042 0.46341839
-2.5482242 -0.60312951 0.52219319 0.40024805
-2.4738786 -0.60673589 0.54474747 0.42141181
-2.364553 -0.60388523 0.53843516 0.43394929
-2.2359064 -0.60753882 0.53640336 0.48620147
-2.1452885 -0.60496897 0.54910862 0.49890673
-2.0397465 -0.60521251 0.53774124 0.49338752
-1.9324293 -0.60873455 0.55060309 0.50624937
-1.855484 -0.60422009 0.54823577 0.53829694
-1.73586 -0.60984749 0.53999263 0.53014123
-1.6460443 -0.61197853 0.52014393 0.48759383
4.3925924 -0.64839768 0.56885964 0.29257369
4.4293218 -0.63677973 0.55036539 0.43790707
-3.0402086 -0.54011756 0.54902697 0.48905921
-2.9492209 -0.55248332 0.5694564 0.43959567
-2.8525586 -0.55202347 0.55899346 0.4296194
-2.734365 -0.54597008 0.54728776 0.43181455
-2.6554303 -0.54313165 0.54874873 0.43590787
-2.5631125 -0.55956757 0.54775953 0.45020291
-2.464087 -0.54550731 0.54162097 0.46847308
-2.3446302 -0.55631709 0.55332685 0.48484409
-2.2543161 -0.54392999 0.54007322 0.5067631
-2.1390798 -0.54765445 0.54077476 0.49012002
-2.0685899 -0.54812521 0.54374665 0.49300709
-1.9609114 -0.54533899 0.55288553 0.54409981
-1.8486075 -0.54532111 0.53992683 0.53379148
-1.7522609 -0.54405808 0.54852068 0.53843594
-1.6523825 -0.54844201 0.54042137 0.52453411
-1.5509665 -0.54632592 0.5252465 0.49789664
-1.4640937 -0.54113173 0.52090168 0.49793869
-1.3750296 -0.5175525 0.55249763 0.49521622
1.3226173 -0.5653652 0.50131714 0.42148149
1.4324496 -0.52852058 0.50119704 0.32742959
4.3979273 -0.51250201 0.57663202 0.49733374
4.4251747 -0.54499686 0.54667532 0.45892811
-1.3402023 -0.48722345 0.53973258 0.47157907
-1.2696637 -0.41446328 0.54772538 0.49008405
1.294597 -0.47753066 0.50149786 0.37304699
1.4561462 -0.41920814 0.55645323 0.32329723
4.3969975 -0.48254442 0.57420433 0.45134753
4.4288831 -0.44752228 0.5435316 0.45578438
-3.0387597 -0.33940786 0.53938997 0.4112618
-2.926049 -0.35445425 0.52589512 0.41773158
-2.8098783 -0.34171423 0.55256772 0.42475045
-2.7639151 -0.33662143 0.57157606 0.44405943
-2.6494603 -0.33829054 0.5697242 0.44683018
-2.5403633 -0.34331691 0.5390259 0.43157643
-2.4249907 -0.33327633 0.5603863 0.44123602
-2.3519797 -0.34370202 0.54006428 0.43667382
-2.233047 -0.33204496 0.57160413 0.46288663
-2.1376905 -0.33926737 0.56799138 0.45846212
-2.0375786 -0.33903122 0.55895102 0.44869518
-1.9353232 -0.3413682 0.55253029 0.44123
-1.8365605 -0.34031987 0.54865509 0.4448778
-1.7657015 -0.35127378 0.57299739 0.46260515
-1.6645306 -0.34491503 0.56749821 0.44813371
-1.5715207 -0.3541193 0.56445014 0.45468572
-1.4809122 -0.35171568 0.5533551 0.42986035
-1.2157011 -0.36266211 0.55164367 0.50471795
-1.173973 -0.31775695 0.55144072 0.50874704
1.3706729 -0.36191887 0.50060773 0.36106107
1.4833438 -0.36029637 0.55252123 0.29734957
1.5032251 -0.39473259 0.52903414 0.28882796
4.3989458 -0.3126893 0.55409813 0.44471568
4.4348173 -0.35869592 0.54372722 0.48839182
-1.4303436 -0.26122084 0.53448057 0.40355909
-1.371568 -0.22786684 0.55754685 0.48595664
-1.2814808 -0.20430084 0.5728637 0.44219038
-1.1591718 -0.23157683 0.57898402 0.37862512
1.3948345 -0.21610837 0.50116551 0.31811514
1.483784 -0.23956981 0.54577565 0.28482592
1.5205923 -0.26721406 0.50089645 0.2668466
4.3980455 -0.22914964 0.56304711 0.49242273
4.4204397 -0.24787116 0.55957699 0.50424159
-1.3210433 -0.15218624 0.50537425 0.38244778
-1.2255465 -0.14593324 0.56760556 0.41405696
-1.1890695 -0.18144819 0.54807699 0.39716834
1.3937113 -0.12604934 0.51628399 0.31194085
1.478919 -0.16745394 0.56238401 0.27326149
4.3940859 -0.15065798 0.56540012 0.5092777
4.4216394 -0.14135286 0.55807877 0.50408393
1.3865623 -0.042340126 0.52321398 0.31733292
1.4894459 -0.074927583 0.55991209 0.32514036
1.5338297 -0.037119389 0.50025541 0.25119895
4.3992233 -0.026331965 0.56522638 0.49921027
4.4198236 -0.039870054 0.55947596 0.50548112
1.3950063 0.056685258 0.53248489 0.32655597
1.4742932 0.070181265 0.58520216 0.3635757
1.5051991 0.047730923 0.5112465 0.26646334
4.3989606 0.075681701 0.5672676 0.5141229
4.4321012 0.064985722 0.54876673 0.49608481
1.4699397 0.13465059 0.5458765 0.29376161
4.3978009 0.16006988 0.55031109 0.43377399
4.4369626 0.16147274 0.53531361 0.48063493
4.5063581 0.15875924 0.50162494 0.28366962
1.3866193 0.24495608 0.54763508 0.31315926
1.4754465 0.24031065 0.54845059 0.2948814
1.5035636 0.29357421 0.53998238 0.27999431
4.3976235 0.29272866 0.5755381 0.45215142
4.4244061 0.24309129 0.54623079 0.44751158
1.3898933 0.35005555 0.5574441 0.32550964
1.4880877 0.34933653 0.53501844 0.28874654
4.3988709 0.31908602 0.5318284 0.39486331
4.4245114 0.36361396 0.55412465 0.44012412
1.3834958 0.45706964 0.57053256 0.31777698
1.4911944 0.4287965 0.55416584 0.30465919
1.5018895 0.4025338 0.53319854 0.40240985
4.3988419 0.45807201 0.54081452 0.39995241
4.4221277 0.45005298 0.56261718 0.42284805
1.3793243 0.56719899 0.5810414 0.3263424
1.4772873 0.55073166 0.54146427 0.2875317
1.5126646 0.50538194 0.50106102 0.23670903
4.3984041 0.58059728 0.55245924 0.41267496
4.4209118 0.53353727 0.56023479 0.42046565
1.3906574 0.65547198 0.58531559 0.33175397
1.4891779 0.6498031 0.54587591 0.2632882
1.5078775 0.64949375 0.52620447 0.26831391
4.397562 0.63186479 0.57487273 0.3735601
4.4169264 0.63900465 0.55538678 0.41665205
1.3740407 0.72384375 0.59028542 0.3377769
1.480935 0.75071806 0.53788352 0.28853509
1.5046202 0.7174015 0.52178907 0.28164747
4.3956656 0.74351549 0.5784688 0.43928969
4.4276643 0.74323273 0.55620742 0.41747272
1.3958001 0.82367337 0.50128871 0.3977592
1.4755654 0.85501254 0.52352715 0.27517802
1.5044525 0.87121832 0.57160825 0.32728902
4.3963308 0.82300186 0.58047408 0.4347795
4.4270697 0.84630585 0.55470741 0.41628727
1.4674757 0.94675553 0.52116704 0.24968256
1.5139759 0.96195322 0.52370346 0.26492128
4.3903842 0.99012947 0.52404422 0.40368825
4.4261436 0.9416728 0.55768144 0.41926128
1.3116654 1.0148449 0.50080353 0.23731449
1.4507976 1.064659 0.54343462 0.24752545
1.5101914 1.0545599 0.51277256 0.26517048
4.394763 1.0780146 0.56101692 0.45228413
4.4222555 1.0511183 0.54341328 0.38502556
7.1346464 1.0944452 0.51447403 0.507213
1.349231 1.1521771 0.51251197 0.25029129
1.4547164 1.1664529 0.54367614 0.23970905
1.5120713 1.1499242 0.5093174 0.25635096
4.3907318 1.12772 0.5510726 0.4828546
4.4224634 1.1526606 0.55667335 0.39828563
7.0862136 1.1783487 0.5482949 0.48846513
7.1238413 1.1456676 0.54901028 0.43956751
7.215683 1.1835592 0.51526558 0.39786476
1.3527282 1.263375 0.52235293 0.24608077
1.4667511 1.2540603 0.53494549 0.25599071
1.5114739 1.2226896 0.52422035 0.2701644
4.396359 1.2356005 0.59560561 0.53264248
4.4247465 1.2463676 0.56913102 0.40833688
4.5131149 1.2742431 0.50106657 0.31944585
6.9889793 1.226459 0.55996323 0.50520217
7.0380654 1.2316228 0.54947329 0.48964348
7.1036668 1.2020993 0.55271876 0.48655117
7.2420855 1.230989 0.57467061 0.45369714
7.3043594 1.2691026 0.53041881 0.39925694
1.3511467 1.3615124 0.52606297 0.25512597
1.4596329 1.3521082 0.54759896 0.25251916
1.5118911 1.3529954 0.50791287 0.26007244
4.3871927 1.3388448 0.53538311 0.28164631
4.4320769 1.3549256 0.56205726 0.40396222
7.0768738 1.3338602 0.54625463 0.51673061
7.1164832 1.3464406 0.54311478 0.5280447
7.3972902 1.3347172 0.53467166 0.46269435
7.4364061 1.34357 0.54037488 0.46818301
7.5527582 1.3442899 0.55435961 0.4407115
7.6514549 1.3466837 0.56664026 0.45299211
7.738132 1.3474648 0.57755244 0.46745443
7.860528 1.3461504 0.5622583 0.4521603
7.9654732 1.3445745 0.51299703 0.3684271
8.0565062 1.3476932 0.52249706 0.37792706
8.1486778 1.3482156 0.5320425 0.38990754
8.2389812 1.3443131 0.54121172 0.39907676
8.3403912 1.343722 0.55187285 0.4120667
8.4492416 1.3436694 0.56347489 0.42366868
8.5705795 1.3463924 0.57670403 0.44138914
8.6931677 1.3453836 0.58997619 0.45466137
8.7024002 1.349427 0.59099829 0.45978558
8.8779001 1.3324261 0.59014058 0.45840853
8.9268475 1.3284476 0.53067696 0.40535656
1.3574636 1.4839716 0.53793848 0.2707215
1.4466598 1.4569169 0.58625686 0.28124446
1.5113933 1.4087861 0.51558 0.2564536
4.379838 1.4016659 0.57610607 0.3139002
4.4523134 1.4022357 0.56829977 0.52879715
4.5796628 1.4997969 0.50047302 0.46456355
4.6304064 1.4762375 0.50049418 0.37216553
7.1882825 1.4441284 0.5589633 0.52177483
7.2341881 1.4630697 0.53571182 0.51186556
1.3514185 1.5953279 0.54644656 0.26906598
1.4394062 1.5466435 0.58599114 0.27624729
1.5242429 1.5253069 0.51181901 0.31266069
4.4542351 1.5079094 0.50028908 0.48409393
4.5415545 1.528893 0.50142992 0.46825477
4.6053324 1.5392305 0.50007242 0.48961902
7.2715521 1.5195858 0.54718828 0.51996619
7.3723364 1.5370688 0.51452446 0.46625745
7.4734688 1.5306535 0.52400935 0.49734533
7.5529957 1.5436546 0.53935862 0.5292064
7.6278486 1.5439205 0.55068398 0.54057062
7.7208786 1.5427896 0.53279269 0.52759004
7.8193412 1.5413482 0.55082262 0.5455609
7.9281349 1.5512714 0.53745961 0.53001976
8.0406761 1.5723336 0.51665241 0.50476378
8.1671057 1.5611386 0.53976822 0.52374667
8.2519855 1.5894194 0.52467239 0.49373075
8.3375645 1.5606922 0.53378105 0.4923926
8.4287491 1.5856017 0.55392635 0.51664084
8.5419312 1.5632067 0.54192489 0.50535363
8.6537905 1.5700297 0.52544886 0.4752731
8.7523212 1.5396792 0.55034065 0.48192516
8.8373747 1.5424305 0.53261107 0.44985974
8.9067154 1.547729 0.55341071 0.47566345
1.4541397 1.6431761 0.55713701 0.26325443
1.5079682 1.6576123 0.52357197 0.27671894
8.6222229 1.6059145 0.56759179 0.51779187
8.7583809 1.606007 0.55838895 0.49743772
8.8722277 1.6156189 0.54018962 0.46769893
1.3558964 1.7305021 0.56055158 0.27856398
1.4527638 1.7435539 0.55772591 0.25949061
1.5016167 1.7514223 0.55580133 0.31910178
1.3451113 1.8454268 0.5696618 0.28801578
1.4746253 1.8670826 0.53015602 0.26250178
1.5085957 1.8689649 0.53146887 0.32145053
1.3353401 1.9679186 0.57950968 0.29783458
1.4673306 1.962184 0.54396427 0.26430285
1.5115662 1.9492538 0.51915354 0.25559816
1.3874424 2.0552082 0.50024235 0.46926993
1.4733939 2.0565162 0.53663456 0.27509928
1.5250013 2.0417638 0.53026116 0.29064471
1.3416243 2.1164327 0.58639276 0.30973911
1.4623975 2.1070621 0.58254504 0.37966222
1.5096333 2.1093779 0.56992078 0.47933814
1.6139157 2.2280111 0.50084645 0.49843055
5.6998839 2.5745497 0.52458239 0.38158727
5.7296705 2.5817988 0.52560145 0.38251519
5.5951433 2.6769624 0.53812826 0.39463741
5.6489019 2.6211903 0.53082359 0.38733277
5.7960844 2.6413183 0.53281164 0.38972536
5.8485169 2.6836302 0.5380919 0.39500561
5.5916414 2.7056432 0.54146236 0.52847058
5.6073403 2.7089608 0.50401479 0.50151795
5.7090826 2.7926612 0.54560536 0.51426017
5.8491578 2.7020569 0.54028881 0.39698952
5.9203186 2.7651768 0.5484767 0.40546346
7.3481488 2.7841067 0.5164541 0.37060481
7.433301 2.7688084 0.51035756 0.36336523
7.5305872 2.7868433 0.51944894 0.37321568
5.6988688 2.8035774 0.5492574 0.50038642
5.7378578 2.845041 0.52479398 0.49869147
5.8114414 2.8918447 0.58582103 0.46421558
5.9569311 2.806294 0.55370736 0.41069403
6.0052471 2.8621535 0.54965734 0.37260044
7.2850513 2.8603823 0.56689978 0.38897797
7.3504925 2.8285151 0.58842707 0.43820167
7.4559937 2.8351121 0.57425892 0.38032144
7.5541096 2.8602331 0.57175004 0.43095332
7.629652 2.8522053 0.51176769 0.44890559
5.7874579 2.9399612 0.52558875 0.49275181
5.810792 2.9628799 0.53023136 0.49621955
5.9626274 2.9443772 0.5431779 0.48835897
6.0096159 2.9526386 0.56196773 0.34038851
7.2757707 2.9171629 0.55768734 0.34596381
7.3095026 2.9322259 0.56362534 0.46683693
7.5919652 2.9179196 0.57844675 0.4308151
5.7924962 3.0601895 0.52798867 0.51668006
5.8108082 3.0379052 0.53379631 0.50956726
5.9549484 3.0461655 0.54263932 0.48948145
6.0070229 3.0473752 0.56633556 0.32527637
7.293025 3.0532866 0.56601518 0.40072024
7.3216519 3.0635812 0.57321978 0.37048638
5.7906437 3.1696353 0.50954574 0.48597378
5.8118048 3.1546979 0.53502464 0.50989389
5.9677215 3.1385174 0.53962433 0.4867852
6.0112562 3.1411643 0.56458604 0.23710303
7.2751808 3.1102784 0.50266492 0.3846907
7.3324928 3.1060629 0.54462326 0.36557055
5.793149 3.2543502 0.51998138 0.49614432
5.8154998 3.257359 0.54275423 0.51091152
5.9604673 3.2447214 0.55066878 0.49993062
6.0087543 3.2472296 0.57128841 0.2494743
5.7869835 3.3375683 0.53044003 0.50034291
5.809721 3.3650351 0.54089963 0.51187831
5.953979 3.3522413 0.54018074 0.468245
6.010067 3.3554311 0.56841326 0.31038511
5.7914491 3.4464529 0.53407621 0.50478429
5.8123355 3.4450777 0.53671938 0.50646311
5.9590449 3.4451468 0.56035471 0.47901461
6.0155401 3.4516635 0.55325651 0.24059732
5.793396 3.5270312 0.53097272 0.49661207
5.8097596 3.5472114 0.55249095 0.50863338
5.9636569 3.5547142 0.54986966 0.4435451
6.0108409 3.5536065 0.56060803 0.28532791
5.7930794 3.641614 0.54522669 0.51774472
5.8094311 3.6509049 0.54726726 0.51218009
5.9781117 3.648592 0.53926021 0.4512316
6.0100574 3.6617367 0.5591805 0.26643139
5.7919345 3.7524331 0.54169154 0.48560271
5.8174849 3.7474179 0.54633045 0.53442085
5.9616804 3.7389746 0.55161691 0.47117656
6.011941 3.7483304 0.56868243 0.27377391
5.7917757 3.8571329 0.54771984 0.49816325
5.8170586 3.8612461 0.52826369 0.45204282
5.9494882 3.8538129 0.54723257 0.45151398
6.0087562 3.8421695 0.56112617 0.33054227
5.7927222 3.9489186 0.54819828 0.4377718
5.8074179 3.9367695 0.54622447 0.41147295
5.9613914 3.9710126 0.55310857 0.4412365
6.0090199 3.9517057 0.54856849 0.2721054
5.7928772 4.0551367 0.54793519 0.43461928
5.811162 4.0316925 0.53292245 0.3869161
5.9588037 4.0360146 0.53725654 0.36861327
6.0126114 4.0397382 0.56855679 0.27614018
5.7916503 4.1312871 0.55761027 0.41925737
5.8283653 4.1598163 0.53572309 0.38701659
5.965333 4.1570482 0.54345417 0.36012435
6.0094604 4.158411 0.57459354 0.27173132
5.7922711 4.2524166 0.54373378 0.40259337
5.8847656 4.2506628 0.55606854 0.41549402
5.9720325 4.2699146 0.57674074 0.40824664
6.0104599 4.231019 0.55021006 0.23799239
5.7921486 4.3590703 0.55037808 0.40838555
5.8808203 4.3825216 0.57263052 0.43052271
5.9784584 4.3163342 0.54677916 0.41859969
6.0125661 4.3455224 0.55106473 0.23174131
5.7904859 4.4232855 0.53643978 0.39405975
5.8272367 4.4397869 0.54410702 0.39718735
5.9717178 4.445591 0.53688306 0.39897862
6.0092564 4.4359198 0.54442483 0.23659237
-0.013028339 -3.4578528 0.66842437 0.52731729
-0.021019982 -3.341001 0.6723088 0.52994347
0.032814652 -3.3584561 0.67628503 0.527897
-0.0099409511 -3.2666323 0.68721533 0.54361778
0.032590568 -3.250206 0.65553266 0.50749636
-0.0080033634 -3.1491361 0.67719144 0.53059053
0.0041111708 -3.1417928 0.69148576 0.546211
-0.034275658 -3.0553384 0.65770984 0.48720443
-0.01214546 -2.9506764 0.67895591 0.53889334
-0.0098627806 -2.8263578 0.68028712 0.53441882
9.5129013e-05 -2.8756318 0.63713884 0.46844408
-0.11173308 -2.7370834 0.60302937 0.55268276
-0.076002359 -2.7542872 0.61857027 0.55583644
0.0099650156 -2.723315 0.62958068 0.47483748
-0.030120794 -2.6463914 0.64586461 0.49024713
0.028625734 -2.6341186 0.61413729 0.46613759
-0.015650982 -2.5461283 0.68476623 0.55630171
0.059813116 -2.5288415 0.60161781 0.46677327
-0.014888803 -2.4735961 0.68277067 0.55271065
0.061964512 -2.4526227 0.60107744 0.34884638
-0.042285759 -2.3338234 0.6752789 0.53060293
0.05117178 -2.3643599 0.60177726 0.34933573
-0.11090022 -2.2236693 0.60632765 0.56977439
-0.042715088 -2.241498 0.6762768 0.53159904
0.011073083 -2.255796 0.63170153 0.46810764
-0.030855009 -2.1488302 0.66008425 0.51509684
0.059882641 -2.1880736 0.60104167 0.35007614
-1.4105041 -2.021596 0.65047514 0.45008081
-0.029233135 -2.0691481 0.67077661 0.52444315
0.0037585124 -2.0065217 0.68648404 0.53561902
-1.6311457 -1.9083972 0.6049993 0.45233476
-1.5220599 -1.9279372 0.67325121 0.50512129
-1.4635681 -1.9783797 0.6622296 0.39196301
-1.387845 -1.9129148 0.60622364 0.46006334
-1.6135451 -1.842873 0.66763377 0.52921283
-1.5596842 -1.8645179 0.67812777 0.54055363
-1.4539461 -1.8561084 0.60646081 0.44776478
-0.041718878 -1.8024517 0.60585004 0.50818622
-0.0084907934 -1.7340333 0.6022104 0.5067001
0.32169098 -1.7136772 0.60028017 0.50780755
0.11256441 -1.622998 0.60103077 0.55444288
0.27100766 -1.6488376 0.60152233 0.57335091
4.3889465 -1.1265645 0.63463056 0.36936438
4.4220676 -1.1237913 0.64270473 0.50981277
4.3947496 -1.0410702 0.61247045 0.3313005
4.4191513 -1.0527236 0.63259697 0.49970502
4.3960257 -0.92776358 0.62249696 0.47191691
4.4200959 -0.94825143 0.61755639 0.48239833
4.3919716 -0.8537159 0.63378847 0.29064319
4.4217114 -0.85531485 0.60509944 0.46994138
4.5011072 -0.88034511 0.69670498 0.41881058
4.3974524 -0.77400815 0.67937523 0.5331794
4.4043541 -0.79610544 0.60246068 0.46482617
4.3931084 -0.66006112 0.6841327 0.4194425
4.4159536 -0.644889 0.62592852 0.48614252
4.505991 -0.66744757 0.6760124 0.42087156
-2.8576224 -0.57332671 0.60044563 0.45348901
-2.7661576 -0.54345798 0.60113168 0.45818943
-2.6204729 -0.59971488 0.60136724 0.48847723
-2.1791201 -0.57360041 0.60118926 0.42136252
-2.0630331 -0.56993663 0.60090494 0.44825348
-1.9274876 -0.58022499 0.60169023 0.40187296
-1.873078 -0.57145166 0.60489845 0.55479312
-1.7362456 -0.54130435 0.60368288 0.45589972
-1.6948369 -0.56382191 0.60159945 0.49774799
-1.5563982 -0.56998789 0.60202312 0.49434409
-1.4930689 -0.54898667 0.60098255 0.56654668
4.3891516 -0.54079884 0.66969013 0.46754757
4.416254 -0.56602061 0.64296079 0.50186884
-1.3278799 -0.49510965 0.60157025 0.56778479
1.4723102 -0.40947685 0.64857054 0.32261434
4.3982468 -0.43559182 0.65352851 0.45578891
4.4132948 -0.4488005 0.63353276 0.50596619
-2.8333197 -0.33691713 0.60054994 0.47014225
-2.7374907 -0.33190012 0.60011804 0.50659835
-2.528615 -0.35587317 0.60114449 0.46800953
-2.0602674 -0.39428616 0.60251635 0.49646333
-1.9295228 -0.34369135 0.60061991 0.46176517
-1.775177 -0.33213186 0.60057747 0.46816313
1.4915029 -0.3607561 0.64201808 0.2391966
1.5069008 -0.38696694 0.64961976 0.40941352
4.3939981 -0.333556 0.6346029 0.48442259
4.4120655 -0.33302507 0.6262784 0.52372175
1.4925281 -0.23830396 0.65468174 0.2463733
4.3939981 -0.261246 0.65233862 0.48880228
4.4148026 -0.245415 0.62410337 0.52482188
1.4876928 -0.14929748 0.66407394 0.29879689
4.3929629 -0.15297839 0.63159317 0.43566379
4.4092484 -0.16777928 0.63055712 0.53144693
1.4745551 -0.072877362 0.69234455 0.28670651
4.3940248 -0.066734895 0.63433683 0.39783123
4.4183054 -0.04768791 0.65554619 0.56245184
1.3980839 0.055242896 0.63564187 0.42365301
1.4771316 0.051077221 0.67809165 0.28451216
4.3927908 0.021035448 0.62052363 0.38605314
4.4190559 0.050420444 0.64735556 0.56077969
1.4599826 0.16084325 0.67736852 0.35003003
4.3838816 0.14786261 0.68497628 0.49687129
4.4157724 0.14713089 0.64004016 0.56969959
1.3901982 0.24582583 0.65636742 0.41114897
1.467576 0.24995995 0.68045282 0.27744624
4.3973856 0.2281574 0.66854799 0.55515587
4.4135141 0.26586604 0.63079572 0.56351793
1.3913275 0.35095322 0.66878372 0.42305964
1.4637687 0.35406077 0.67579329 0.28611133
4.3944225 0.35919854 0.65771455 0.5093767
4.4114237 0.35466188 0.63627648 0.52960467
1.38899 0.45836949 0.68141729 0.4286617
1.4671237 0.45266682 0.6716122 0.28002626
4.3978472 0.47215989 0.65032572 0.53775907
4.4116917 0.44826555 0.6353035 0.52854156
1.3695978 0.55469799 0.69123173 0.43835104
1.4667587 0.55391139 0.66711712 0.3599503
4.3882227 0.50778395 0.64911431 0.47015053
4.4251232 0.56816697 0.60307097 0.46396598
1.467638 0.65008211 0.66655856 0.33931148
1.5007999 0.60766268 0.68538499 0.33706445
4.3962746 0.61798644 0.61734885 0.48007435
4.4198742 0.65091461 0.61485422 0.47611952
1.4771497 0.75587654 0.6610682 0.33921292
4.3964624 0.76700139 0.6684646 0.50302058
4.4200463 0.74208999 0.62756044 0.48882574
1.3737481 0.85167372 0.60945171 0.34824109
1.4742951 0.85686922 0.65338719 0.36880153
1.5027099 0.86218941 0.6851536 0.3136498
4.3966484 0.8194114 0.60403061 0.46521679
4.4190016 0.84476757 0.64323604 0.50481582
1.358852 0.9708519 0.62081224 0.35876983
1.4646933 0.94809759 0.65234381 0.39900148
1.5020041 0.95666361 0.67404598 0.46686658
4.3969383 0.93876553 0.66167319 0.52809185
4.4220724 0.94585025 0.65559447 0.51717424
1.362456 1.0696657 0.63145477 0.36599755
1.4723195 1.0444366 0.64782071 0.41539559
1.5050659 1.062135 0.680318 0.29792333
4.396296 1.087306 0.62779903 0.49964637
4.4176774 1.0479832 0.64335597 0.48496825
1.3645107 1.1709628 0.64235812 0.37650958
1.46012 1.1379018 0.64544654 0.3239508
1.5000947 1.1524603 0.64285243 0.27905053
4.3885751 1.1456963 0.66743881 0.52064508
4.4202237 1.1504672 0.65391362 0.49552593
7.0795126 1.1776723 0.60017979 0.57766378
7.2247486 1.1890496 0.60004914 0.50334752
1.3646775 1.274467 0.65347737 0.36128473
1.4596467 1.2354207 0.69392419 0.30378044
4.3881798 1.2807794 0.665416 0.52298546
4.4204388 1.2506332 0.64151102 0.48071688
7.0422602 1.2374301 0.60274577 0.56773627
7.18609 1.2097509 0.60479367 0.48779958
7.2965975 1.2546039 0.60148072 0.5129689
7.3027005 1.2977841 0.60024732 0.46182358
1.3532008 1.3677685 0.66285962 0.37081334
1.4526795 1.334914 0.69110084 0.32524192
1.5102019 1.3870571 0.66090637 0.31632674
4.3934484 1.3288844 0.63839614 0.48966122
4.4253922 1.3556328 0.65835965 0.50026464
7.0771279 1.3122836 0.60245812 0.50108737
7.6765537 1.3348588 0.6033963 0.47246554
7.8849611 1.3454083 0.60099876 0.47887635
8.1022091 1.3392498 0.60217148 0.4582701
8.2111654 1.337479 0.60095191 0.47042999
8.4663029 1.3568019 0.60213625 0.4528822
8.7184772 1.3294976 0.60004741 0.45945388
8.8397331 1.3454981 0.60256368 0.45680559
8.9246178 1.3584151 0.60168505 0.45440874
1.3439363 1.4680312 0.67324442 0.39862114
1.4668326 1.4358864 0.68620926 0.36869073
4.4446936 1.4009504 0.61973143 0.37849814
7.2237115 1.4461648 0.60243142 0.46847618
1.3483073 1.5917809 0.68715137 0.4110654
1.4497479 1.5545784 0.6510492 0.33447239
7.677238 1.5523689 0.60021579 0.39315081
7.7669954 1.5160618 0.60019749 0.52760977
1.4468032 1.6478388 0.65009373 0.27145776
1.5037435 1.6453124 0.63737202 0.27531594
8.5244427 1.6013721 0.6123184 0.55016708
8.9004793 1.612172 0.61961806 0.54712737
1.4462707 1.7397161 0.64915138 0.27177265
1.5035927 1.7386305 0.61725497 0.36888617
1.4457202 1.8300849 0.62901378 0.33875269
1.5062573 1.8462925 0.64499122 0.31587541
1.4474752 1.9319956 0.62190509 0.33986402
1.5094843 1.9666739 0.63411355 0.37264574
1.4475994 2.0546136 0.61175406 0.33188796
1.5033667 2.0346153 0.63408041 0.371903
1.4574924 2.1057568 0.63128805 0.39911765
1.5014637 2.1031976 0.63029259 0.39820951
5.7182531 2.552258 0.60295272 0.55017728
5.5902615 2.6441176 0.60091656 0.49820822
5.6736174 2.6242149 0.60098571 0.4643797
5.7616949 2.6175709 0.6006695 0.45677531
5.8843412 2.736661 0.60018778 0.45954162
5.922719 2.7517364 0.60117215 0.47716653
5.6964722 2.8002281 0.60014713 0.55467814
7.291986 2.863534 0.60120332 0.4557485
7.3386583 2.8461039 0.60411114 0.46678233
7.4477844 2.8563809 0.61151463 0.47418582
7.5339022 2.8694751 0.61043721 0.47356331
5.8405948 2.9441679 0.60242105 0.4920885
5.9662375 2.9371872 0.60281444 0.53400284
6.0199714 2.9926155 0.60041326 0.38162714
7.279551 2.9485288 0.64683521 0.47374356
7.3421564 2.9347835 0.65603507 0.47645849
7.413147 2.921917 0.65682244 0.51185
7.5587425 2.9001803 0.60493815 0.52164668
7.6317873 2.9135873 0.61226767 0.4665705
5.8786259 3.0607445 0.6449424 0.55178875
5.9059553 3.0240381 0.67660409 0.42877105
7.29671 3.0129781 0.67088771 0.51152605
7.311306 3.0142076 0.65897226 0.47188345
5.8794293 3.1565197 0.66161829 0.51755798
5.9550362 3.1379747 0.63844842 0.42032281
6.0121226 3.1085818 0.6003741 0.45048293
7.3504348 3.1294501 0.61012256 0.42191833
5.8639393 3.2543936 0.66627717 0.51557642
5.9067974 3.2393994 0.68370759 0.27242836
5.8519292 3.3540733 0.6713624 0.5288046
5.9617009 3.350178 0.60927773 0.466414
6.0006027 3.3383336 0.60031122 0.34298965
5.856349 3.4685869 0.65155351 0.50633425
5.916563 3.4494219 0.65693808 0.34441185
5.8666954 3.5612643 0.65592587 0.50265515
5.9150143 3.5546889 0.6547724 0.29209566
5.8582282 3.6549866 0.65688008 0.50265187
5.9151907 3.6383495 0.66937923 0.29853028
5.796361 3.798739 0.6021452 0.47150415
5.8567147 3.7393854 0.6709249 0.5144394
5.9132137 3.736583 0.68128604 0.26987222
5.8630652 3.84586 0.68680751 0.52713507
5.906651 3.8470163 0.66932619 0.3500267
5.797286 3.9151716 0.6845547 0.49609286
5.8621793 3.9480124 0.6634897 0.48611856
5.9070454 3.9548345 0.68657088 0.28208238
6.0066032 3.9442053 0.60045516 0.4478997
5.8736763 4.0542026 0.65378916 0.46748808
5.9116325 4.0519557 0.6825183 0.31980169
5.7943926 4.1693935 0.64254433 0.45875335
5.8805776 4.1756892 0.64925331 0.42882469
5.9638042 4.1808639 0.61021674 0.47991392
5.7932916 4.2694139 0.6572212 0.49496102
5.8809023 4.2457361 0.66742843 0.50603944
5.9149179 4.2563682 0.64048421 0.31573617
5.792016 4.3775053 0.67325437 0.50610816
5.8722744 4.347414 0.69198334 0.52775908
5.9034443 4.3265629 0.64039016 0.27797052
5.7910829 4.4241753 0.60006112 0.4578656
5.8975835 4.419096 0.65715885 0.46054944
5.9122152 4.4425716 0.65068394 0.24741042
-0.013413634 -3.4413524 0.7367059 0.59008789
-0.016247921 -3.3742785 0.72813773 0.58549261
0.002643466 -3.3785734 0.74246275 0.59681004
-0.0096359868 -3.2582254 0.73670632 0.59261
0.005254209 -3.2594895 0.71692419 0.57979012
-0.036148068 -3.1536798 0.75028366 0.537588
-0.010102952 -3.0774565 0.71844274 0.5749017
0.00028377771 -3.0218914 0.74757659 0.59430474
-0.035296679 -2.9696693 0.71575135 0.55858099
-0.016139191 -2.8456316 0.73616993 0.58295059
0.0093331337 -2.8643718 0.79739702 0.4911277
-0.030341398 -2.7651289 0.72862971 0.57324135
-0.014426488 -2.659389 0.72170794 0.56766695
0.0015835762 -2.6958895 0.78781879 0.48389256
-0.03345222 -2.5500164 0.75222749 0.56028879
-0.036825471 -2.4462056 0.75282025 0.5610916
-0.026521781 -2.3388743 0.77709579 0.51299798
0.0045700073 -2.3583775 0.76799864 0.46858785
-0.040946655 -2.2488418 0.74444127 0.58009976
-0.01671206 -2.1514318 0.75733781 0.5278132
0.007499218 -2.1967969 0.75868589 0.4592751
-0.032681137 -2.0826263 0.75050986 0.56228602
4.5182714 -1.2049744 0.72687149 0.44987839
4.3925133 -1.1074491 0.7620917 0.50452161
4.4255152 -1.1363089 0.73342443 0.58134043
4.3974247 -1.0302143 0.74510276 0.45321649
4.4115849 -1.0673939 0.72491777 0.58269471
4.5138278 -1.0901005 0.71594048 0.42685205
4.3938141 -0.92074919 0.71800107 0.50946212
4.4163375 -0.9606663 0.72372162 0.57771796
4.5018611 -0.99008727 0.70723808 0.41814965
4.3965416 -0.81311715 0.70517004 0.49339819
4.4124451 -0.85718572 0.75118172 0.47164649
4.3946505 -0.76780581 0.74989545 0.36412337
4.4098806 -0.75561965 0.74951959 0.47650406
4.3970399 -0.64149326 0.76322591 0.45179534
4.4176946 -0.65361083 0.73456943 0.58809447
4.3869061 -0.53541267 0.7773838 0.51951331
4.4102082 -0.56620026 0.72646093 0.58072978
1.4723768 -0.40493348 0.77380788 0.3485527
4.3965774 -0.4426398 0.77258217 0.52546996
4.4278364 -0.45723754 0.72480166 0.58355504
1.4707501 -0.34680197 0.72054386 0.38199884
1.5043328 -0.39633965 0.78535509 0.52987355
4.3932991 -0.33975828 0.74808526 0.330235
4.414535 -0.3415432 0.76679301 0.53237361
1.4622431 -0.26238477 0.7176553 0.37859258
1.5095124 -0.22489381 0.77551526 0.31211799
4.3944292 -0.24980965 0.74966645 0.4977932
4.419714 -0.24406485 0.7626515 0.5244779
1.4562817 -0.17302513 0.71222275 0.37304279
1.5063531 -0.11017108 0.76616776 0.27215642
4.3963871 -0.13607684 0.74357486 0.54499781
4.4224167 -0.16085282 0.73962158 0.54568762
1.4603863 -0.066883489 0.72397161 0.31434178
1.5081632 -0.050873995 0.74266827 0.34326917
4.3942223 -0.021398548 0.74751294 0.50980854
4.4253354 -0.05259807 0.74221319 0.509794
1.4563538 0.025411451 0.7215445 0.28105146
4.3932281 0.054783136 0.76985991 0.52428854
4.4276676 0.054204091 0.73084235 0.56269008
1.4550018 0.11948164 0.71038163 0.30047256
1.5082593 0.11565375 0.74759257 0.32079694
4.3879509 0.15102318 0.78183466 0.55130947
4.4301305 0.14949545 0.72838044 0.54979002
1.3868082 0.2397868 0.7617476 0.51652914
1.4620621 0.22806413 0.72992921 0.2565144
4.3914089 0.24744782 0.75648499 0.51636076
4.4188771 0.25499359 0.72772163 0.56052625
1.3832275 0.3407675 0.77537084 0.52964675
1.4753969 0.33239895 0.74015188 0.35201031
1.5079136 0.30009151 0.71106195 0.33948296
4.3942451 0.35594529 0.7300083 0.51525992
4.4165511 0.32814628 0.73195648 0.57798767
1.392282 0.457775 0.79330969 0.54055411
1.4586124 0.41726103 0.72108972 0.32617155
1.5026846 0.40333724 0.70252281 0.35135126
4.3930178 0.45597887 0.74789232 0.56226134
4.4087768 0.43845475 0.74804306 0.57528812
1.4680644 0.54946327 0.77606964 0.44463336
4.3952618 0.56432706 0.73129463 0.5291875
4.4128609 0.55916357 0.74134529 0.57120121
1.3857292 0.6490221 0.70453554 0.44630039
1.4652719 0.62887228 0.77138424 0.44096562
4.3954439 0.64594805 0.72336304 0.55346942
4.4189515 0.66099703 0.73021829 0.56026614
1.3846725 0.73020601 0.71465009 0.45408422
1.4713337 0.74787855 0.78386331 0.4545618
4.3955431 0.74630195 0.71419024 0.55051666
4.4258976 0.75674772 0.75514722 0.5556109
1.3699776 0.84420764 0.7278465 0.46663588
1.4830029 0.84663606 0.74690819 0.39635244
1.5043538 0.8637917 0.79178834 0.51419306
4.3926096 0.83311331 0.72250628 0.52790391
4.4296379 0.85238969 0.74878681 0.50294572
1.3600589 0.9685564 0.74309438 0.48105198
1.4608309 0.94763303 0.74218029 0.37731236
4.3949518 0.93644238 0.76877403 0.51822352
4.4291906 0.94049072 0.74557197 0.56845069
1.3680683 1.0724404 0.75752819 0.49207097
1.4441607 1.0674844 0.7476573 0.39954031
1.5104358 1.0760677 0.78099132 0.34877181
4.3963814 1.0567696 0.76197791 0.51074839
4.424191 1.0485423 0.74485815 0.55937284
1.3670849 1.1703246 0.77050287 0.50465429
1.4405639 1.1652002 0.74596119 0.40111116
1.5105989 1.1602926 0.77295023 0.40914834
4.3949184 1.1620286 0.76020217 0.54921138
4.4199686 1.1783991 0.70058352 0.53726268
1.3680662 1.2749176 0.78469467 0.492502
1.4396632 1.2691634 0.74350613 0.35428208
1.5092914 1.244751 0.76497495 0.43520686
4.3992052 1.2779465 0.74290252 0.53530681
4.4180288 1.2530435 0.71478522 0.55399108
1.353901 1.3649163 0.79575217 0.50370586
1.436408 1.3522298 0.74996507 0.3840242
1.5017892 1.3886596 0.74031872 0.49441803
4.3931212 1.3628623 0.72938621 0.33686686
4.4258299 1.3500725 0.73219436 0.57409936
1.43885 1.4537036 0.76474261 0.4012773
1.5002397 1.4824831 0.78420335 0.54168975
4.388133 1.4148078 0.73544377 0.34575063
4.4468803 1.4076161 0.70890945 0.56559831
1.4438193 1.5615771 0.76941812 0.3646974
1.5062726 1.5177717 0.74290526 0.53098476
1.444929 1.6573179 0.75858068 0.38055441
1.5026531 1.6470912 0.77944481 0.43859529
1.3477789 1.7150023 0.70081806 0.42041603
1.4536555 1.7441754 0.7612229 0.38384369
1.5071301 1.7577311 0.7751686 0.42060506
1.3494638 1.8480976 0.71583164 0.43418562
1.4461995 1.8312422 0.76030612 0.39335918
1.3425792 1.9753258 0.72981161 0.44813651
1.4415716 1.9321728 0.76749349 0.44749475
1.4468873 2.0727096 0.77632374 0.36631149
1.5132661 2.0210834 0.72512221 0.46601385
1.3343281 2.1074538 0.74439168 0.46311277
1.4376624 2.1159182 0.71574402 0.44934016
1.5067861 2.1059587 0.76842356 0.47695446
5.9020939 2.999959 0.70297205 0.56257182
5.8955469 3.0112731 0.74508178 0.49166769
5.9055462 3.0147882 0.72418016 0.56377
5.8823037 3.1534722 0.74841702 0.46687999
